0.283839 0.188085 0.198257
-0.095619 -0.047860 -0.051550
0.005644 0.221368 0.393609
0.024555 0.132153 0.433438
-0.072539 0.055119 -0.207058
0.443135 0.287473 0.093595
0.004972 0.279582 -0.146809
-0.361038 -0.372959 0.000934
-0.089284 -0.048436 -0.065381
-0.148575 0.064134 -0.120214
0.022349 -0.008852 0.042055
0.258510 0.280297 -0.036538
-0.379069 -0.378177 0.042369
0.046291 0.052184 -0.099705
0.305238 0.099664 -0.177594
-0.256903 -0.185156 0.119732
-0.155417 -0.146114 -0.337456
0.199521 0.410961 0.070198
0.026371 0.105916 0.292095
0.153054 0.168551 -0.175659
-0.200105 -0.280875 -0.380924
-0.156141 -0.166672 0.089941
0.274383 0.282121 0.039052
0.278507 0.189535 -0.226120
-0.001576 0.367552 -0.089991
-0.077272 0.147481 0.108468
-0.400138 -0.189267 0.006535
0.365718 0.081133 -0.227826
0.160283 0.145958 0.467877
-0.019839 0.005950 0.059527
-0.287454 -0.221962 0.099073
-0.107283 -0.035983 -0.050626
-0.245882 -0.003083 -0.136984
-0.080005 -0.055872 -0.089540
0.113910 0.294276 0.202505
-0.040943 -0.079449 -0.043866
-0.177023 -0.175057 0.117879
0.444536 0.141328 -0.126895
-0.235620 0.006910 -0.142777
-0.085751 0.330279 -0.012418
-0.029030 0.209762 0.300024
-0.054658 0.103589 0.106243
0.005016 0.122711 0.372717
0.333497 0.283989 0.292244
-0.008116 0.152968 0.367542
0.072361 0.175953 0.254352
-0.109526 0.206667 -0.042135
-0.120116 0.241751 0.023192
0.260257 0.235682 -0.125775
0.083984 0.125658 -0.130087
-0.110341 -0.412432 -0.409872
0.265769 0.292988 -0.012279
0.499249 0.132323 -0.137241
0.012971 -0.133530 -0.208286
-0.149208 -0.318912 -0.375578
-0.115010 -0.105983 -0.186861
0.354369 0.240066 0.065230
0.180514 0.421789 0.026729
0.309739 0.251182 0.063746
0.219662 0.270733 0.182474
-0.011686 0.256425 0.248700
0.038516 0.221615 -0.160651
0.485114 0.110291 -0.221696
0.267241 0.339877 0.131666
-0.069164 0.271775 -0.096297
-0.028269 -0.113682 -0.146858
0.070478 0.037485 -0.061600
-0.157753 -0.082288 0.151910
0.571300 0.074694 -0.159579
0.057188 0.231821 0.453540
-0.389776 -0.289399 -0.087999
-0.034655 0.234911 -0.143315
-0.131869 -0.019580 -0.133313
-0.025169 0.010673 0.062983
-0.126848 -0.401931 -0.394489
-0.132927 -0.082023 -0.216113
-0.135873 -0.004682 -0.128268
0.018355 0.231437 0.408598
0.303618 0.232658 0.038968
0.229760 0.365811 0.125149
0.070598 0.431829 0.089233
0.025726 0.398548 -0.060821
-0.126635 0.199527 -0.020498
0.165051 0.408633 0.117158
-0.044635 0.312883 -0.100864
0.053075 0.256852 -0.160008
0.020650 0.414225 -0.039557
0.206891 0.087934 -0.037791
-0.040945 0.346675 0.137773
0.114268 0.097881 0.161656
-0.017955 0.126967 0.243313
-0.000291 0.196382 0.424115
-0.102696 0.089659 -0.147257
0.032934 -0.123492 -0.234492
-0.036797 0.046502 -0.221552
-0.038418 -0.218124 -0.273531
-0.082774 -0.067924 0.049902
0.274621 0.217127 0.499034
0.049796 0.020230 -0.071909
0.168787 0.416925 0.095793
0.037294 0.095244 0.362068
0.150965 0.155673 0.163444
-0.163384 0.015684 -0.115259
0.108324 0.412270 0.130879
0.153491 0.353639 -0.106948
0.099931 0.285367 -0.162394
0.293516 0.157464 0.201745
-0.068695 -0.124576 -0.175360
0.232357 0.089686 0.134381
0.314355 0.135097 0.191726
-0.089005 0.312401 0.081507
0.204359 0.405663 0.024125
-0.256151 -0.156023 -0.005305
-0.041547 0.281769 0.165209
-0.357171 -0.398500 0.063664
0.068284 0.238215 0.411523
0.390869 0.257668 0.119616
-0.283399 -0.327322 -0.304853
-0.104207 0.200427 -0.068944
-0.038830 -0.099076 -0.137004
-0.373894 -0.179861 -0.037926
0.406334 0.078566 -0.229933
0.314270 0.023183 0.163532
-0.024316 0.136412 0.160535
0.009003 0.003262 -0.242006
0.341849 0.175053 -0.238312
0.098320 0.158565 0.334337
0.243068 0.061848 0.109981
-0.273441 0.011891 -0.160660
0.317362 0.208199 -0.168786
-0.088131 -0.070502 0.064798
-0.168097 0.035807 0.086263
-0.060079 0.248789 -0.118813
-0.005761 0.356716 0.155053
0.233292 0.143763 -0.067540
-0.134124 0.010341 -0.121446
-0.270364 -0.318047 -0.378349
0.363518 0.177742 -0.255957
0.334932 0.125880 -0.244336
-0.303881 -0.223475 0.094418
0.136168 0.436723 0.018816
-0.021906 -0.139877 -0.180451
-0.055159 -0.077897 -0.030664
0.246686 0.362767 0.087715
0.111923 0.051028 0.044819
-0.186119 -0.203466 -0.357592
-0.099739 0.304200 -0.000990
-0.026783 0.401231 0.035824
-0.377188 -0.338148 0.060793
-0.008255 -0.061232 -0.013603
0.216242 0.246638 -0.175510
-0.088774 -0.405411 -0.418970
0.298654 0.302515 0.245964
0.211110 0.201475 0.511396
0.182925 0.120171 0.102619
0.160820 0.072149 0.043568
-0.212177 -0.368783 -0.337772
0.045451 0.345310 0.189116
-0.024812 0.167761 -0.136905
-0.099441 -0.213467 -0.349710
-0.349607 -0.376900 -0.018647
0.084406 0.104894 0.339897
-0.181610 -0.161907 -0.320391
0.064888 0.116800 0.454020
-0.016421 0.130624 0.162555
0.400932 0.118109 -0.266274
0.262775 0.131944 -0.109808
-0.022457 0.378500 -0.057916
-0.337375 -0.358303 0.036117
0.133271 0.154087 0.171941
-0.047287 0.226512 0.188850
0.341503 0.125079 0.131570
-0.035592 -0.147959 -0.193384
0.045151 0.352712 0.184309
0.022735 0.019751 0.061061
-0.050750 0.021347 -0.263572
0.180515 0.423124 0.034495
-0.106588 -0.029897 -0.260475
0.154302 0.286923 -0.145162
-0.237631 -0.266333 -0.289948
-0.095281 0.274619 -0.027030
-0.347693 -0.154392 -0.018733
-0.212256 -0.147435 0.144392
-0.336895 -0.367063 0.070477
-0.298002 -0.139052 0.076322
-0.180125 0.064925 -0.099864
-0.090235 -0.392992 -0.412403
-0.447297 -0.310583 -0.034894
0.095327 0.174050 0.214937
-0.114150 0.073611 0.083940
-0.346473 -0.222822 -0.062916
0.062702 0.153722 -0.141170
0.162591 0.289878 -0.137227
-0.226959 -0.141223 0.141385
-0.024574 -0.184684 -0.248292
0.196108 0.278670 -0.118866
0.238540 0.142408 -0.090395
0.540262 0.132948 -0.193348
0.439711 0.088076 -0.160423
-0.081780 0.320438 -0.031173
-0.083215 0.337068 0.029092
-0.121514 -0.380001 -0.415088
0.004903 0.119299 0.230072
0.249879 0.145989 -0.227497
-0.287143 -0.259890 0.002349
-0.077970 0.234417 0.138800
0.001667 0.418752 0.051664
-0.249041 -0.328176 -0.379400
0.017244 -0.053553 -0.271012
0.227389 0.135001 -0.036954
0.052316 0.300512 -0.148671
-0.117356 0.034800 -0.191422
0.075315 0.423923 -0.047610
0.031880 0.397475 -0.065401
-0.086827 0.219089 -0.082249
-0.043127 -0.039977 -0.291708
0.334882 0.117103 0.134325
-0.039079 -0.155276 -0.205321
-0.007653 0.234231 0.286556
0.298889 0.183930 -0.111102
-0.156789 -0.391519 -0.382376
-0.052267 0.004306 0.079537
-0.079969 0.161928 0.114307
-0.114365 0.047042 -0.177430
-0.163948 -0.378829 -0.397209
0.037094 -0.103857 -0.222145
-0.050904 0.282260 0.161610
0.191685 0.353682 -0.071458
-0.066205 -0.092175 -0.300059
-0.240119 -0.231053 0.079802
0.266250 0.189423 -0.090254
-0.125139 0.148391 0.062200
0.031090 -0.111121 -0.212748
-0.180105 0.000550 -0.076485
-0.298046 -0.166331 0.095944
0.005908 0.349657 -0.115304
0.084541 0.229451 0.364004
0.017678 0.430984 0.063198
0.100777 0.171092 0.489560
-0.423021 -0.339681 0.019452
-0.339013 -0.278878 -0.019329
0.418717 0.284454 0.108024
0.583446 0.055930 -0.128671
-0.064385 -0.212395 -0.242319
0.125147 0.129308 0.487288
-0.012686 0.262824 0.220277
0.065850 0.007175 -0.000166
-0.042868 0.390821 0.034003
0.343663 0.201251 0.121148
0.212052 0.319534 -0.071744
0.115860 0.297499 0.199707
-0.348209 -0.154008 0.071123
-0.140625 -0.324194 -0.400716
-0.131693 -0.204282 -0.215414
-0.250724 0.042430 -0.103746
0.220658 0.148918 0.163394
-0.185233 0.053471 0.044703
0.200578 0.379531 0.123444
0.364619 0.164518 -0.262008
-0.331414 -0.212292 0.078580
0.110284 0.142722 0.387727
0.246843 0.118498 0.175453
-0.095419 -0.420532 -0.419335
0.348588 0.071405 -0.169729
-0.214605 -0.043680 -0.009109
0.298507 0.244452 0.219655
-0.083856 -0.128800 -0.312771
0.091120 0.196717 0.334325
-0.045351 0.176663 0.289105
-0.067133 0.309620 0.134991
0.040525 0.423766 0.108043
-0.068113 0.365654 0.033093
0.121790 0.036793 -0.033465
-0.306797 -0.125256 0.016119
-0.210685 -0.210452 0.091032
0.194494 0.416226 0.051636
-0.209513 0.027899 -0.139562
-0.094640 -0.120731 -0.299722
-0.115096 -0.085815 -0.258940
0.042892 0.104557 0.176412
0.241075 0.197559 0.202345
0.379955 0.128344 -0.268649
-0.009349 0.119095 0.272825
0.237025 0.338711 0.159861
-0.167315 -0.138188 0.145746
0.145276 0.435957 0.050389
-0.274668 0.053084 -0.131169
0.016235 -0.035917 -0.005671
-0.006401 0.282773 -0.140488
-0.327895 -0.332233 -0.000726
-0.041375 0.382514 0.087905
0.557709 0.150508 -0.150549
0.164019 0.340656 -0.109356
-0.002835 -0.111037 -0.300188
0.337839 0.288041 0.099499
-0.370580 -0.390738 0.074210
0.031173 -0.064517 -0.257507
0.315864 0.156590 0.165206
0.044826 0.212903 0.315811
0.151911 0.416229 -0.024478
0.000729 0.183869 -0.140126
-0.086034 0.287430 0.115978
0.333596 0.261743 0.065209
0.019377 0.008069 -0.173737
0.011913 0.253183 0.262000
0.076857 0.173683 0.239432
0.041392 -0.067666 -0.227472
-0.034838 -0.217234 -0.279743
0.022459 -0.003455 -0.172865
0.310133 0.121511 0.064588
0.086760 0.194152 -0.158244
0.143562 0.139120 -0.130982
-0.105225 -0.037802 -0.085194
-0.129965 -0.274656 -0.267002
0.116624 0.164576 0.204617
-0.088071 0.227895 -0.075549
-0.111882 0.079779 -0.145981
0.011489 0.113429 0.390015
-0.132267 -0.131709 0.044307
-0.402122 -0.200942 -0.042924
-0.266015 -0.080982 0.088356
-0.251982 -0.169266 -0.012533
-0.197664 0.052675 -0.074397
-0.070615 -0.206086 -0.342918
-0.151609 -0.378975 -0.417678
0.046386 0.131547 0.223323
0.030807 0.221008 0.347467
0.086607 0.216381 0.469837
0.043652 0.338378 0.191257
-0.165603 0.123302 -0.034880
0.338392 0.267009 0.257111
0.542321 0.023217 -0.159914
0.039401 0.011032 -0.091636
-0.264520 -0.269941 -0.351287
0.282095 0.165722 0.041722
-0.346590 -0.394720 0.059800
0.173756 0.304423 0.189345
-0.007652 0.082350 0.128798
0.334966 0.142300 -0.120486
-0.328223 -0.129616 0.049449
0.199792 0.080156 -0.037600
-0.410003 -0.367157 0.094364
0.279088 0.196281 -0.101864
0.110015 0.224710 0.373569
-0.156917 -0.321379 -0.424454
0.423073 0.202785 -0.177831
0.298590 0.154374 -0.120256
0.224514 0.381731 0.016288
0.561952 0.111908 -0.174838
-0.106645 0.287804 0.043070
0.263518 0.052190 0.147601
0.217902 0.224002 0.199725
-0.231605 -0.264378 -0.360796
-0.216125 -0.346514 -0.386555
0.243342 0.158487 -0.024201
-0.247250 -0.083444 0.014205
-0.270969 0.020176 -0.105317
-0.044631 0.005013 0.073944
0.309028 0.103125 -0.156773
-0.182568 -0.095539 0.156832
-0.073336 0.321392 -0.054157
0.327099 0.105220 0.108811
0.043681 0.099996 0.174857
0.013211 0.037757 -0.176269
0.126368 0.212576 -0.157234
-0.104779 0.281323 0.076730
-0.028651 -0.032936 0.032917
0.340577 0.095830 0.146930
0.111105 0.046713 -0.054990
0.010700 0.381659 -0.080263
0.310359 0.182475 -0.120817
-0.080912 0.276488 -0.042116
-0.150404 -0.153948 -0.245694
0.392029 0.234069 0.110886
0.217899 0.159080 0.168584
-0.006624 0.161019 0.367939
0.129774 0.389245 -0.083067
0.280552 0.092826 0.192893
-0.162575 -0.172356 0.083939
0.398674 0.202697 -0.159550
-0.148456 -0.206099 -0.220858
0.466415 0.135691 -0.141391
0.266704 0.201551 0.504033
0.056245 0.035495 0.101367
-0.134915 0.158578 0.040193
-0.064415 -0.065614 -0.109462
-0.061984 0.112653 0.106331
-0.394387 -0.374327 0.109708
0.271328 0.220731 -0.192095
-0.170595 0.085293 -0.044756
-0.096136 0.121926 -0.141950
-0.056962 -0.082756 -0.124604
-0.067936 0.095731 -0.163209
0.017533 -0.041345 -0.027801
0.192383 0.287691 -0.125771
-0.254388 -0.163254 0.121177
-0.029692 0.402002 0.060206
0.097846 0.039955 -0.019658
0.276159 0.184794 -0.011118
-0.406477 -0.193830 -0.010221
-0.123672 0.172169 -0.081521
-0.097327 0.238469 -0.051040
0.188988 0.121465 0.026844
-0.036635 0.212874 0.268390
-0.082367 -0.241174 -0.336795
0.136326 0.438786 0.038230
-0.230902 -0.221769 -0.314725
0.372838 0.250271 0.121131
0.330712 0.264272 0.263201
-0.382324 -0.374625 0.054688
0.281565 0.133978 0.192894
0.423962 0.102386 -0.248850
-0.114440 0.084957 0.078918
-0.314705 -0.369127 0.020915
-0.159938 0.134874 -0.031779
0.232915 0.125403 0.160853
-0.242910 0.003174 0.055297
-0.092805 -0.257304 -0.325401
-0.194131 0.057683 -0.076666
0.178581 0.413615 -0.000639
0.007744 0.423666 0.060688
0.072919 0.393249 0.153961
0.343841 0.030747 0.188777
0.144525 0.084979 0.060348
0.427280 0.088764 -0.160190
0.280553 0.344321 0.077874
0.574608 0.089241 -0.110635
0.305950 0.288730 0.214698
0.436920 0.092769 -0.156915
0.110334 0.329072 -0.142617
-0.032453 -0.099330 -0.306620
-0.376335 -0.380559 0.047185
0.540074 0.154597 -0.119172
-0.136932 -0.054190 -0.030561
0.129728 0.186889 0.392655
-0.005478 0.328789 -0.120526
0.088522 0.041173 0.073879
-0.003875 0.179272 0.368863
0.149765 0.207431 0.414284
0.011991 0.091515 -0.146090
0.437415 0.189608 -0.234279
-0.100750 -0.376616 -0.404896
0.174026 0.137936 0.124871
0.175118 0.193040 0.166220
-0.143108 -0.327461 -0.381951
0.113293 0.293649 -0.158419
0.279561 0.218599 -0.000879
0.069704 0.173386 -0.158416
-0.045381 0.300644 -0.105159
0.052548 0.132413 0.257657
-0.135197 0.162567 0.040913
0.224397 0.349558 -0.014819
-0.134430 -0.012802 -0.140779
-0.085162 -0.095074 -0.150359
-0.123372 -0.275255 -0.313124
-0.308101 -0.304746 -0.325747
0.037555 0.053283 -0.111620
0.344429 0.215341 0.115589
0.028656 0.179918 0.472132
-0.085574 -0.155202 -0.217091
0.271279 0.225158 -0.183369
0.000647 -0.050893 -0.013767
0.135138 0.292691 0.196915
-0.400059 -0.346598 0.000514
-0.349622 -0.286447 0.000569
0.103499 0.195442 0.338410
0.011605 0.044149 0.088524
0.125882 0.035832 -0.001624
0.195752 0.120684 -0.122684
-0.075086 0.282853 0.134066
0.283856 0.042748 0.130421
-0.348725 0.043075 -0.170173
0.203123 0.143722 0.149914
-0.082950 -0.065630 -0.012574
0.186155 0.405355 0.092235
-0.019939 0.122004 0.288144
-0.133279 -0.195084 -0.218123
-0.105439 -0.089291 -0.145155
0.160094 0.137232 0.139155
-0.121403 -0.369118 -0.408077
0.281323 0.152319 0.058465
-0.046221 0.189069 0.264743
-0.040865 0.144346 0.152811
0.190641 0.130247 0.502398
0.231042 0.155817 0.199138
-0.151642 -0.156954 0.109386
0.020841 -0.117974 -0.197890
-0.172234 0.097783 -0.036919
-0.358252 -0.227244 -0.066195
-0.026557 0.044355 -0.216535
-0.069910 0.105295 0.100298
0.423776 0.058967 -0.180467
0.472679 0.175357 -0.200406
0.106897 0.152148 0.375378
0.275313 0.043668 0.113272
-0.141722 0.000964 -0.100287
-0.235103 -0.038617 0.005798
-0.096055 0.004953 0.106636
-0.038883 0.167138 0.188060
-0.003976 -0.055595 -0.290594
-0.107434 0.185166 0.081458
-0.138538 -0.329641 -0.373411
-0.114811 -0.255566 -0.345422
0.325831 0.142811 0.075117
0.350595 0.194978 0.094906
0.332621 0.081674 0.093554
-0.173084 0.091829 -0.012627
-0.263778 -0.336525 -0.329267
0.310652 0.304434 0.248889
0.233965 0.134796 0.054271
-0.348816 -0.348198 0.065721
0.321455 0.110928 -0.136832
-0.080042 0.348600 0.062402
0.226449 0.357919 0.133759
0.128212 0.193270 0.372099
0.123106 0.296580 -0.155058
-0.114227 -0.131194 -0.231384
-0.175743 -0.246154 -0.241689
0.356787 0.085424 -0.160806
-0.131204 -0.125283 -0.296451
0.345211 0.069539 0.172330
-0.300099 -0.137185 -0.009360
0.338277 0.288646 0.301212
0.030628 0.122619 0.191009
0.328093 0.306499 0.273524
0.275664 0.199593 -0.024300
0.112448 0.210758 -0.154029
0.512900 0.123880 -0.140427
0.100020 0.166467 0.490958
0.179853 0.085885 -0.074105
0.243479 0.225101 0.500063
-0.083202 -0.229119 -0.233402
-0.307915 0.043952 -0.134749
-0.069696 -0.244210 -0.304368
0.371617 0.186571 -0.126404
-0.047093 -0.012575 0.069955
0.363030 0.151300 -0.114107
0.321637 0.158165 0.154962
0.410541 0.147622 -0.130178
-0.239257 -0.118243 0.141188
-0.117727 -0.120608 -0.230556
0.015766 0.393910 0.139459
0.132517 0.366345 0.168830
0.039135 0.371098 0.169769
-0.189153 -0.356981 -0.410766
-0.434595 -0.304872 0.006414
-0.228429 -0.155702 0.134562
0.483092 0.095813 -0.153984
-0.433750 -0.301831 -0.075518
-0.142835 0.169966 -0.011355
0.066800 0.237153 0.444026
-0.036201 -0.109736 -0.306858
0.234122 0.166673 0.504827
0.116144 0.212379 0.364129
0.026666 -0.121972 -0.221176
0.196516 0.295216 0.185439
0.129567 0.307495 -0.146260
-0.102981 -0.089905 0.098158
0.310460 0.216330 0.218867
0.177346 0.324605 0.182279
-0.440748 -0.307365 -0.049560
-0.106162 0.013844 -0.239875
-0.010487 0.036510 -0.228023
-0.157421 -0.155537 -0.343781
0.050904 0.242137 -0.163633
0.107649 0.048337 -0.057468
0.320633 0.311752 0.290186
0.208215 0.191268 -0.209883
0.236773 0.095435 0.153874
0.514560 0.099232 -0.146376
-0.135921 -0.190426 -0.364140
-0.126663 -0.124296 0.039519
-0.269788 -0.222495 -0.033319
0.184867 0.338367 -0.095059
0.262075 0.172787 -0.050619
-0.140016 -0.063478 0.145352
-0.099168 -0.136461 -0.332686
0.330617 0.126674 -0.124702
-0.026152 -0.160483 -0.207322
0.198975 0.142866 0.141356
0.255601 0.302079 -0.017615
0.258113 0.270167 -0.063684
0.112843 0.040827 0.000418
-0.086805 -0.064748 0.069488
0.206035 0.259608 -0.114371
-0.133899 -0.222554 -0.362915
0.063114 0.092737 -0.115125
-0.243130 -0.304196 -0.292969
0.260586 0.173761 -0.054258
0.088938 0.038976 -0.035534
0.309037 0.034851 0.123297
-0.057388 -0.146612 -0.196667
0.076699 0.216858 -0.163464
-0.442019 -0.260540 -0.046813
-0.033949 0.386434 0.084155
-0.391398 -0.319504 -0.083110
0.533468 0.171073 -0.160623
0.230372 0.199527 -0.209902
-0.429939 -0.302390 -0.091159
-0.234563 0.049256 -0.121700
-0.214663 -0.204514 -0.326344
0.400207 0.100533 -0.150379
0.017623 0.230235 0.427094
-0.032304 -0.093206 -0.125371
0.383118 0.079209 -0.228436
0.007964 0.269455 0.226578
0.098753 0.178072 0.486251
0.180940 0.251182 0.456392
0.025978 0.106972 0.394202
-0.283312 -0.284760 -0.356720
0.091788 0.022706 -0.011415
-0.106545 -0.027988 -0.068732
-0.066480 -0.045069 0.065787
-0.014439 -0.133261 -0.176709
-0.405450 -0.368759 0.059157
-0.131906 -0.011405 -0.113854
-0.280602 -0.184857 0.110869
-0.199907 -0.172727 0.035724
-0.025016 -0.090218 -0.125497
-0.271501 -0.156699 -0.019820
-0.024084 0.140475 0.205228
0.049604 0.231618 0.374196
0.233158 0.251916 0.472381
0.172214 0.240847 0.488865
-0.383196 -0.269373 -0.077438
0.208731 0.106515 0.087633
-0.135343 0.023957 -0.144068
0.278160 0.179335 0.011738
0.106104 0.236451 0.389853
0.236660 0.099099 0.157441
-0.344859 -0.407087 0.079912
0.335132 0.080882 -0.202191
0.037861 -0.008269 -0.084228
0.024969 -0.021276 -0.077834
0.423118 0.077427 -0.229859
-0.231246 -0.292441 -0.385664
0.217102 0.168305 0.176772
0.124187 0.061572 0.058714
-0.155310 -0.320000 -0.341152
-0.332119 -0.396054 0.025327
0.263778 0.072541 0.162975
-0.367435 -0.390574 0.082907
-0.252002 -0.259575 -0.333657
0.137240 0.378158 0.160736
-0.105647 -0.158496 -0.228146
0.174285 0.190614 0.527317
0.084328 0.076166 -0.091230
-0.025244 0.139998 -0.145896
0.000893 0.415778 0.079220
0.022236 -0.115205 -0.277327
-0.004570 0.420956 0.015767
0.220805 0.172172 -0.214805
-0.333459 0.038296 -0.166696
-0.105365 -0.395772 -0.388071
0.317705 0.224662 0.218568
0.119601 0.442115 0.033756
0.002308 0.129387 0.355109
0.538975 0.149247 -0.121186
-0.444911 -0.263924 -0.049683
-0.168855 -0.270650 -0.254688
-0.398434 -0.359395 0.101886
-0.413872 -0.328006 -0.030472
0.257411 0.175411 -0.010494
0.007996 0.200022 0.439905
-0.214387 -0.212437 0.092811
0.021013 0.417036 0.109619
0.410148 0.179512 -0.126454
0.088115 0.041049 -0.043041
0.059137 0.009000 -0.033651
-0.224658 0.045190 -0.090037
0.255810 0.279748 -0.059029
-0.116676 -0.035423 0.126133
-0.049981 0.216069 0.184095
0.309959 0.293821 0.296656
-0.159118 -0.376427 -0.319250
-0.111544 0.186948 0.100366
0.498824 0.063122 -0.221120
0.041409 0.127777 0.240879
0.403695 0.152836 -0.118540
0.521847 0.118700 -0.206500
0.528577 0.170132 -0.142374
0.401893 0.202691 -0.166524
0.281588 0.285134 0.274501
-0.422631 -0.240763 -0.050877
-0.112257 -0.119561 -0.198785
0.236450 0.329132 -0.011245
0.189626 0.140854 0.136572
0.324465 0.103371 -0.231530
-0.288899 0.025231 -0.118025
0.114741 0.128174 -0.127726
-0.037799 0.147252 0.248672
-0.045261 0.335392 0.142625
-0.385326 -0.293678 0.032404
-0.196212 0.045518 0.029787
0.271242 0.291477 0.153814
-0.127823 -0.117625 0.124525
0.310670 0.209457 -0.149687
-0.155780 -0.269320 -0.369541
0.476795 0.080590 -0.163417
0.229222 0.235608 0.196937
0.055985 0.243039 0.240808
-0.157595 0.130846 -0.047326
-0.107993 0.153920 -0.114419
0.095954 0.149957 0.197301
0.238855 0.159064 -0.003831
-0.095779 0.013805 0.106056
0.156692 0.431174 0.017268
-0.050867 0.346568 0.125296
-0.162517 -0.182800 -0.357909
0.077664 0.167604 -0.155353
-0.293493 -0.135484 0.075010
0.307904 0.216626 0.182714
0.540028 0.052719 -0.198992
-0.367555 -0.339670 -0.049103
0.034522 -0.046176 -0.235839
0.568890 0.064152 -0.135744
-0.145148 -0.373808 -0.430399
0.380489 0.286578 0.111522
0.182522 0.064663 0.002560
-0.377593 -0.180321 0.046032
-0.179341 -0.369574 -0.384951
-0.386119 -0.305003 0.044441
0.466379 0.284279 0.056709
0.398998 0.076555 -0.230140
-0.041894 0.382514 -0.012915
-0.158912 -0.323734 -0.331463
-0.156286 0.119522 -0.063149
-0.074311 0.079269 -0.174286
-0.088649 -0.256293 -0.313739
0.019008 0.007830 -0.212392
0.034078 -0.003361 -0.130493
-0.044757 0.104584 -0.159785
0.215776 0.112163 -0.059108
-0.329402 -0.136002 -0.003925
0.057607 0.388559 -0.091795
-0.233286 -0.195672 0.009021
-0.306345 -0.262550 0.051674
0.057829 0.310915 0.201380
0.356306 0.231771 0.113389
-0.072724 -0.003420 -0.271164
0.031850 -0.114310 -0.259707
-0.094396 0.239613 0.118299
-0.366950 -0.203629 -0.058324
0.247047 0.147501 0.197871
0.295753 0.191909 -0.212273
-0.172124 -0.249830 -0.372913
-0.064993 0.298550 0.140186
-0.065945 -0.081011 -0.125120
-0.053580 0.315109 -0.088517
-0.399210 -0.329402 0.075124
0.214575 0.111197 0.134767
0.365000 0.168053 -0.260581
0.232089 0.142898 -0.042842
-0.000065 -0.044995 -0.064192
-0.337953 -0.372400 -0.019065
-0.059293 -0.110523 -0.154575
-0.193812 -0.163862 0.136420
0.531574 0.080830 -0.146755
0.164960 0.420647 0.079834
-0.041948 -0.159156 -0.325544
0.063732 0.444140 0.043843
0.188112 0.310274 -0.119135
0.037004 0.023746 -0.109252
-0.131552 -0.161249 -0.354406
0.377507 0.157994 -0.262903
-0.093714 0.018574 -0.247570
0.220066 0.252747 -0.161733
-0.202544 0.037907 0.009259
0.425469 0.278348 0.055249
-0.260278 -0.341914 -0.311007
-0.116160 -0.032112 -0.093833
0.491566 0.119535 -0.218059
-0.047273 0.172379 -0.140542
0.554538 0.115387 -0.127816
0.055439 0.297317 0.209886
-0.354425 -0.172912 -0.040156
-0.003489 0.201420 0.409126
0.142240 0.105377 0.131527
0.105394 0.278702 -0.162818
0.033403 -0.067472 -0.249752
-0.112983 0.191096 0.098871
-0.198608 -0.294419 -0.284439
0.151096 0.182126 0.174974
-0.028817 -0.000461 -0.274697
0.138882 0.091367 0.128153
-0.094181 -0.086360 0.056955
0.217673 0.112261 -0.011094
0.104248 0.352463 -0.122368
0.280948 0.061020 0.179712
0.203306 0.191150 0.469858
0.046253 0.220693 0.347533
0.562149 0.011196 -0.172664
-0.265594 -0.068166 0.071619
0.059983 0.206954 0.284610
-0.284503 -0.326720 -0.327946
0.119653 0.049106 -0.056992
-0.121636 -0.009360 -0.236823
0.201137 0.116687 -0.136005
0.176761 0.403811 -0.031243
0.124321 0.368811 0.169125
-0.059455 0.178485 0.147238
-0.019034 -0.047379 0.013085
-0.121576 0.204111 0.072520
0.125066 0.052344 0.034179
0.201513 0.306132 0.188358
0.231002 0.237560 -0.184135
0.262148 0.220973 0.495415
0.250723 0.269422 0.190228
0.079222 0.095400 0.176814
0.093226 0.113606 0.365528
-0.120840 -0.274629 -0.324737
0.124557 0.059674 0.042408
0.100883 0.104636 0.450041
-0.113141 -0.021449 -0.251757
0.063215 0.226298 -0.164289
0.393277 0.151297 -0.121565
-0.362375 -0.399397 0.072720
-0.380719 -0.290049 0.028139
-0.050775 0.339823 0.131676
0.277057 0.233109 0.002949
-0.321743 -0.178946 -0.047151
-0.024046 0.354494 -0.083634
-0.253356 -0.015523 0.066277
-0.269743 -0.274243 -0.311657
0.234754 0.225458 0.492804
-0.250672 -0.095666 0.127805
0.518590 0.077370 -0.216008
0.182539 0.135494 0.539607
-0.112362 0.167865 0.064695
0.109737 0.166529 0.370116
0.124723 0.314066 -0.146929
0.005525 -0.060850 -0.127143
-0.364420 -0.370552 0.000384
0.046293 0.060873 0.138071
0.012770 0.226936 0.394126
-0.417936 -0.269690 0.004007
0.262361 0.358027 0.069458
-0.435029 -0.283626 -0.105466
0.029901 0.116060 0.232889
-0.079646 0.250165 -0.081288
-0.059333 0.187662 0.147932
-0.115871 -0.120026 0.059272
0.433793 0.270057 0.083187
-0.015482 0.082560 0.113857
-0.314094 -0.215181 -0.054111
0.588206 0.090840 -0.132624
-0.032379 0.395607 0.014972
-0.137958 -0.138064 -0.338121
0.222567 0.186661 -0.213507
-0.225226 -0.348115 -0.309777
0.367399 0.210080 -0.172858
0.085562 0.423585 -0.047179
-0.113802 -0.231649 -0.221859
0.058413 0.363232 -0.116993
-0.040397 -0.220374 -0.270855
0.406290 0.144548 -0.133547
0.107014 0.040527 -0.042225
-0.164420 0.124193 -0.000844
-0.226503 -0.217481 0.088722
0.298749 0.110025 -0.154264
0.131250 0.129100 0.474083
0.316902 0.178023 -0.222535
0.215024 0.133788 0.046497
0.355465 0.206599 -0.207187
-0.435910 -0.322262 -0.014817
-0.145373 -0.391093 -0.324045
0.043993 0.239175 0.439672
0.088164 0.144244 0.321273
-0.333163 0.051061 -0.200920
0.171955 0.348628 0.161375
0.033927 0.014068 -0.141372
-0.340238 -0.390834 0.013589
-0.113558 -0.394359 -0.384593
0.291105 0.180809 -0.105333
0.248450 0.209532 -0.205976
0.014785 0.274841 0.219454
0.062972 0.271487 -0.159540
0.135195 0.078353 -0.087628
-0.120016 -0.063387 -0.135105
0.260493 0.208868 -0.065028
-0.086995 -0.083089 -0.288322
-0.144200 0.105710 -0.101465
-0.135523 0.061512 -0.142571
0.155641 0.171167 -0.183036
0.281440 0.302419 0.025231
-0.047119 0.385039 0.068133
0.253723 0.181266 -0.074147
0.182091 0.244061 -0.171183
0.385948 0.082135 -0.232310
-0.102009 -0.034338 -0.059904
0.026815 -0.017972 -0.045228
0.333169 0.079791 -0.169763
-0.081834 0.129388 -0.143030
-0.167550 -0.067069 -0.014439
-0.254165 -0.335583 -0.304799
0.122314 0.421597 0.112678
0.188224 0.229575 0.506858
-0.369142 -0.392440 0.078552
0.153618 0.204452 0.424416
0.564485 0.091272 -0.157064
0.164409 0.392641 -0.059921
0.130689 0.108157 0.432852
0.181135 0.119648 0.035228
-0.325441 -0.359699 -0.012045
0.405000 0.147526 -0.131362
0.362804 0.104437 -0.153107
-0.282269 -0.306060 -0.373512
0.561362 0.052846 -0.140302
-0.142458 -0.328721 -0.421750
0.063472 0.007713 -0.030927
0.501332 0.084473 -0.154698
-0.414299 -0.353667 0.078478
-0.080775 -0.411344 -0.415359
0.264967 0.217534 0.505390
0.289266 0.044824 0.165191
0.058348 0.210251 0.330707
-0.303932 -0.262278 -0.020381
0.208474 0.120112 0.531822
0.114303 0.109361 0.401939
-0.051121 -0.230984 -0.289651
0.051166 0.127329 0.203942
0.010294 0.427743 0.055292
-0.171587 0.078482 -0.001115
-0.223003 -0.119514 0.001274
-0.122053 -0.413526 -0.339887
-0.101841 -0.100163 0.061733
0.025353 0.168336 0.468527
0.088585 0.244545 0.220063
0.440863 0.072471 -0.216619
0.316020 0.155735 -0.127029
0.149808 0.433806 0.062298
-0.391380 -0.179433 -0.004894
0.266076 0.307889 0.012146
-0.325336 -0.378389 -0.005035
-0.176238 -0.000631 0.137518
-0.208516 -0.191114 0.046191
-0.100623 0.309737 0.040382
0.319697 0.135564 -0.237349
0.313117 0.109217 -0.140759
0.426594 0.179331 -0.251273
0.076769 0.370016 0.171952
0.287999 0.151828 0.048613
-0.149287 -0.133561 -0.300451
-0.235373 -0.254315 -0.349703
0.096808 0.191444 0.220353
-0.338427 -0.344425 -0.021394
-0.113362 -0.406853 -0.393147
0.022638 -0.036014 -0.127354
0.365175 0.282320 0.112989
-0.132673 -0.060471 -0.022066
0.216068 0.140432 -0.198940
0.388088 0.089765 -0.160608
0.282821 0.288495 0.267986
0.340538 0.090799 -0.226581
0.198483 0.356245 0.156011
0.326067 0.120608 0.101768
-0.155244 -0.151305 -0.341424
0.189583 0.371386 -0.045029
0.199806 0.234702 -0.188807
0.166880 0.179810 0.530587
0.117171 0.155568 0.507374
-0.004034 0.172663 0.430977
0.188444 0.298869 -0.124815
-0.208561 -0.101611 -0.004951
0.144852 0.086950 0.101657
-0.140145 0.078557 -0.122671
-0.343775 -0.382370 0.040611
0.060226 0.062939 -0.095931
0.080166 0.014750 -0.019974
-0.086021 0.161893 0.104928
0.078784 0.416913 0.122875
0.117812 0.226861 -0.154681
0.004770 0.076613 -0.158723
0.235347 0.172015 0.532544
-0.194452 -0.289965 -0.388330
0.251751 0.170532 0.032482
-0.095952 0.142610 0.089063
-0.321906 -0.220018 -0.057438
0.075762 0.274476 -0.159843
0.468504 0.103707 -0.220598
-0.109696 -0.368306 -0.402930
-0.009120 0.161938 0.418934
-0.238390 -0.138980 0.132047
-0.084148 0.334244 -0.009778
-0.201934 0.040187 -0.129676
-0.189068 -0.165290 -0.306494
-0.440618 -0.315046 -0.030080
-0.230281 0.048895 -0.103156
-0.008099 0.154024 0.402236
-0.194579 0.051586 0.024638
0.178547 0.131465 -0.159386
-0.200627 -0.184521 -0.280296
-0.321629 -0.144251 0.080514
-0.126771 0.201516 -0.004568
0.313008 0.025768 0.159640
0.339675 0.073338 -0.182582
-0.027893 -0.212890 -0.283144
0.383443 0.237502 0.098427
0.121743 0.296418 0.197241
0.240207 0.140356 0.196890
0.016061 0.096073 0.153751
0.143000 0.075719 0.081644
0.019920 0.046199 0.100248
0.163578 0.107826 0.059864
-0.045508 0.169548 0.288982
-0.165455 -0.310731 -0.403493
-0.168236 0.112928 -0.004696
0.114218 0.119139 0.466722
0.162138 0.067555 -0.064227
-0.032251 0.251833 0.206529
0.072761 0.166090 0.484898
-0.031582 0.143713 0.209683
0.344883 0.074661 0.167971
0.317728 0.120237 0.075727
0.260381 0.181918 -0.087889
-0.015523 0.154230 0.336313
-0.029379 0.353650 0.142808
-0.150568 0.083801 -0.107716
-0.248712 -0.121657 0.128979
-0.237837 -0.129294 0.138837
-0.154526 -0.088803 0.149958
0.285054 0.047899 0.173026
-0.279306 -0.132844 0.091905
0.337980 0.214782 0.072808
0.005827 0.407272 0.113660
-0.256175 0.049305 -0.147329
-0.100795 0.290790 0.073251
0.135332 0.437452 0.060751
0.060881 0.122590 0.320050
-0.334812 -0.148640 0.076219
-0.164512 0.077123 -0.090587
-0.168144 0.019602 -0.118719
-0.209860 -0.261345 -0.263553
-0.255341 -0.290506 -0.376582
0.380013 0.137832 -0.135158
0.002543 0.303953 0.192535
-0.145688 -0.324585 -0.418510
-0.253311 -0.006658 -0.129471
0.036904 -0.062587 -0.240769
0.132133 0.417055 0.107956
-0.199407 -0.000095 -0.022332
-0.125808 -0.061487 -0.025752
0.365171 0.249108 0.057728
0.008799 0.384221 0.146363
-0.381668 -0.280669 -0.080216
-0.260070 -0.063360 0.041561
-0.226045 -0.262669 -0.363499
-0.222024 -0.117289 0.150648
0.035054 0.429883 0.090159
0.172631 0.211595 0.437528
-0.110577 0.218487 -0.024863
0.294018 0.109122 -0.193998
0.107519 0.240379 0.402082
-0.122050 -0.232527 -0.353022
-0.267074 -0.121991 0.011857
0.229404 0.161289 0.529480
-0.215633 0.025772 0.082532
-0.314765 -0.230162 0.085520
0.162585 0.167428 -0.186921
-0.213655 -0.109428 0.155925
0.370418 0.113437 -0.251313
0.279231 0.042869 0.135124
-0.082975 -0.233235 -0.241689
0.172954 0.170137 -0.199102
0.372848 0.246194 0.120170
-0.175118 -0.180967 0.100199
-0.101822 0.213580 0.109598
-0.198408 -0.116272 0.158476
-0.179201 -0.344361 -0.314476
-0.127007 -0.163959 -0.356259
0.098181 0.120304 0.186511
0.199614 0.170822 -0.207119
0.402893 0.189858 -0.137802
-0.068703 0.131218 -0.148914
0.258616 0.238967 -0.046531
0.552238 0.035602 -0.171147
-0.044973 0.096688 -0.169276
-0.133745 0.004938 -0.185632
0.447041 0.195712 -0.175458
-0.188235 0.022597 0.109560
0.120472 0.162020 0.187844
0.072540 0.127196 0.471869
-0.042276 0.302751 -0.105936
-0.326020 -0.387046 0.009080
-0.315671 -0.210682 -0.054190
-0.337283 -0.405503 0.098470
-0.052386 0.376990 -0.004122
0.269523 0.218218 -0.108936
0.212227 0.397565 0.080704
0.430930 0.307448 0.068364
0.217357 0.162814 0.528709
0.511815 0.159673 -0.130170
-0.035693 0.216458 0.265937
-0.093223 -0.045376 0.102567
-0.365448 0.054323 -0.182181
-0.268662 -0.216218 -0.036713
0.326733 0.278192 0.271828
0.264610 0.233538 -0.038199
-0.137142 -0.013767 -0.156717
0.101148 0.040444 0.081468
-0.008933 0.134077 0.174302
-0.024814 -0.058232 -0.059901
-0.134691 -0.035738 -0.219016
-0.185943 -0.306962 -0.299410
0.222337 0.272009 -0.103568
0.386962 0.264439 0.080106
-0.237218 -0.312730 -0.295127
0.112828 0.390797 0.156061
-0.086233 -0.424451 -0.421459
-0.236908 -0.000242 0.087194
-0.277113 -0.140993 0.099479
0.259978 0.184636 -0.227849
-0.322706 -0.168566 0.090954
-0.041540 0.214950 -0.125971
0.105097 0.158874 0.195408
0.008647 0.422242 0.081438
-0.157463 -0.151428 0.047024
0.007597 0.134700 0.413218
0.092424 0.380059 0.167410
0.152588 0.141634 0.461990
0.112122 0.201005 0.220846
0.189937 0.219981 0.511996
-0.000044 0.184720 0.431014
0.036488 0.265044 -0.155478
0.510547 0.116754 -0.141267
-0.078485 0.240220 -0.083715
0.214956 0.393934 0.081474
-0.230492 -0.245107 -0.285990
-0.360373 -0.375855 0.009005
0.006246 0.223304 0.399630
0.045158 0.071353 -0.113372
-0.248438 -0.260097 -0.341143
0.008962 0.159200 0.448010
-0.136500 -0.339940 -0.355768
-0.150729 -0.159580 0.099130
0.151788 0.290250 -0.142662
0.013297 0.117721 0.168681
-0.100896 -0.372335 -0.393293
0.130661 0.429275 -0.019348
0.141005 0.038815 0.007191
-0.036536 0.107260 -0.158835
0.319815 0.084912 -0.192482
0.122052 0.144257 -0.135666
-0.082124 0.087620 -0.167816
0.331795 0.252488 0.230394
-0.105209 0.287364 0.061059
-0.318332 -0.224967 0.086299
0.340038 0.290315 0.281638
-0.332523 0.057460 -0.202037
0.194794 0.204144 0.463717
0.034617 0.425519 -0.020479
0.266326 0.276304 0.226315
0.012480 0.212751 -0.159373
0.245940 0.370815 0.051911
-0.078473 0.160797 0.127779
0.017517 -0.021686 0.026921
0.164814 0.161292 0.531813
0.114118 0.329225 0.183238
0.125366 0.234534 0.412318
0.034347 0.110937 0.268364
-0.052304 -0.148017 -0.322684
-0.090333 0.147388 -0.133064
0.177535 0.163778 -0.197861
-0.139257 -0.030376 -0.203810
0.085679 0.094991 0.420969
-0.310665 -0.164451 -0.037831
-0.324358 -0.399377 0.026770
0.170446 0.245768 -0.162438
-0.030920 0.388041 0.087797
-0.055957 0.306031 -0.092308
-0.040525 0.147486 0.279263
-0.069679 -0.164310 -0.218455
0.062652 0.053463 -0.084943
0.058878 0.124106 0.187928
0.182421 0.130602 0.118432
-0.293611 -0.262500 0.004556
-0.179612 -0.183495 0.103767
0.093202 0.350117 0.180784
-0.099410 0.228832 -0.052083
0.118120 0.412865 -0.053586
0.241552 0.216454 0.203677
0.305622 0.124636 -0.137022
0.322741 0.023859 0.175522
-0.122060 0.218810 0.019594
-0.153046 -0.316877 -0.405946
0.122723 0.121601 -0.123305
-0.221537 -0.161502 0.014133
0.253001 0.174391 0.032102
-0.015463 -0.054723 -0.078105
-0.330718 0.066062 -0.160902
0.169418 0.387308 -0.062294
-0.420441 -0.277698 0.011725
-0.449343 -0.307012 -0.043209
-0.051700 0.145423 -0.145238
0.102615 0.442066 0.069369
-0.301514 -0.264542 -0.008061
-0.207338 -0.208945 0.105178
0.018492 0.268934 -0.149867
-0.364600 -0.309507 0.036515
0.179867 0.420450 0.021577
-0.277461 -0.275053 -0.345479
0.404121 0.186416 -0.132862
0.287257 0.124162 -0.129642
0.103987 0.240451 0.435606
-0.149144 -0.254073 -0.239202
0.251503 0.360817 0.086241
0.413668 0.270501 0.081508
0.019755 0.214036 0.352495
-0.333796 -0.217248 -0.058263
0.081496 0.409903 0.135930
0.127931 0.065459 0.062093
0.214859 0.269986 0.182553
0.438863 0.118390 -0.250705
0.221999 0.152898 0.187181
0.399348 0.069953 -0.166533
0.287387 0.160244 0.043393
-0.263549 -0.241120 0.077442
-0.022202 0.369570 -0.070512
-0.093149 0.302520 0.086165
0.081044 0.113748 0.458907
0.384798 0.132027 -0.136573
0.356665 0.113266 -0.246829
-0.009846 0.103556 0.143228
-0.060967 0.301724 -0.089318
-0.009979 0.075487 0.112751
-0.044524 -0.223810 -0.272862
-0.253864 -0.057959 0.025404
0.273455 0.292055 0.149023
-0.388034 -0.346322 -0.024108
-0.210732 -0.000510 -0.121672
0.256793 0.237630 -0.125920
0.278629 0.098809 -0.165306
0.011098 -0.054339 -0.127829
-0.127450 -0.134641 0.091889
0.291459 0.301004 0.259948
-0.344539 -0.180092 0.081218
0.426171 0.199540 -0.222455
0.270301 0.299197 0.141695
-0.171368 -0.386164 -0.357183
0.206300 0.399309 0.086137
0.011316 0.097824 -0.145601
-0.014794 -0.186014 -0.257714
0.237474 0.249033 -0.156738
-0.158384 -0.013939 -0.054628
0.189794 0.126315 0.536184
0.082007 0.431547 0.095970
-0.166161 -0.174007 0.105790
0.007888 -0.154578 -0.231421
0.209912 0.304588 -0.099546
-0.018841 0.375432 -0.066395
-0.097200 -0.054264 0.109073
-0.264060 -0.006089 -0.129287
-0.026380 -0.147884 -0.186028
-0.231243 -0.134650 0.142282
0.182249 0.121839 0.506724
-0.109244 0.257883 0.079877
-0.043505 0.175927 0.308928
0.041763 0.266868 -0.156852
0.263465 0.356240 0.079093
-0.010876 -0.151343 -0.204994
0.098664 0.432940 -0.028348
-0.290417 -0.176409 -0.039050
-0.189861 -0.048140 -0.015956
-0.013989 0.090066 0.136193
-0.150199 0.069374 -0.115921
-0.272001 -0.279608 -0.359208
0.307761 0.223583 0.223308
0.223713 0.122835 -0.030629
-0.151583 -0.082008 -0.007326
-0.137327 -0.129264 -0.312094
-0.375114 -0.237109 -0.066289
-0.279146 -0.247468 0.075265
0.291479 0.065057 0.098851
-0.006076 0.120390 0.234607
-0.254916 -0.329848 -0.301483
0.153499 0.422984 0.093778
0.119296 0.288010 0.202080
0.057180 -0.003082 -0.008531
-0.063907 0.366431 0.070225
-0.237447 -0.335007 -0.391494
0.380252 0.077058 -0.224512
-0.157157 0.148038 -0.002710
-0.047789 0.160668 0.155705
-0.389103 -0.213446 -0.060975
0.062819 0.235767 0.399635
0.301917 0.262438 0.060814
-0.216723 -0.004464 -0.116478
-0.261810 -0.077365 0.099142
-0.403914 -0.335870 -0.023286
0.257991 0.244592 0.237132
0.256203 0.139233 0.191949
0.172778 0.392129 0.135974
-0.230569 -0.144748 0.137247
0.270956 0.226773 -0.013489
-0.073919 0.308377 0.126107
0.107373 0.141542 0.383863
0.316421 0.184528 0.045097
-0.002699 0.206533 0.403316
0.207474 0.364687 -0.035208
0.556561 0.058366 -0.146470
-0.291309 -0.207543 -0.047624
-0.041610 -0.072275 -0.111041
0.026073 -0.131261 -0.233138
-0.291560 -0.190982 -0.045846
-0.114446 -0.260805 -0.336899
0.070921 0.425277 -0.045299
-0.064982 -0.050917 0.055883
-0.183513 -0.158877 0.140635
-0.087308 -0.056907 -0.099278
-0.271948 -0.151838 -0.015795
-0.387848 -0.220611 0.047624
-0.202777 -0.324616 -0.413375
0.543383 0.171925 -0.154607
-0.359777 -0.307019 -0.052257
-0.018689 0.212058 0.323347
0.022564 0.434366 0.020268
-0.356232 -0.149008 0.054315
-0.377568 -0.348262 -0.049609
-0.174595 0.072986 -0.058690
-0.301265 -0.304343 -0.310307
-0.126324 -0.097337 -0.219660
0.179435 0.138850 0.130141
0.165344 0.219296 0.207094
0.103942 0.165989 0.497771
0.575458 0.055626 -0.161625
-0.307378 -0.184289 -0.047393
0.435675 0.287715 0.098406
-0.124857 -0.375944 -0.375186
0.003355 0.200757 0.342368
-0.080780 -0.075933 -0.127035
0.189941 0.185728 0.163694
0.092195 0.075522 -0.097221
-0.250059 -0.267963 -0.304464
-0.372445 -0.345195 -0.051973
-0.087428 -0.081161 -0.135795
-0.353162 -0.411114 0.103231
0.344052 0.120982 -0.246976
-0.112632 0.053015 -0.172176
0.151538 0.220190 0.209769
0.537859 0.150228 -0.184469
-0.336961 -0.160578 0.082314
0.546706 0.143181 -0.173183
-0.255009 -0.111200 0.122216
-0.143549 0.111934 -0.099289
-0.154353 -0.316451 -0.352027
0.222344 0.364811 0.129938
0.271553 0.219430 0.207715
0.316207 0.284046 0.217008
0.172093 0.134892 0.119581
-0.018814 0.000606 -0.270303
0.446101 0.068894 -0.182316
-0.208556 -0.001359 -0.108553
-0.023812 -0.106426 -0.307551
0.342933 0.166196 -0.244793
0.224408 0.382189 0.099884
0.086632 0.356819 -0.123696
0.425967 0.167541 -0.258292
0.049169 0.414479 0.126290
-0.216346 -0.129786 0.008795
-0.139455 -0.013405 0.135176
0.254719 0.207119 0.511320
-0.345672 -0.233890 0.062445
0.580424 0.041845 -0.110546
0.445384 0.084678 -0.166320
-0.112954 0.185537 0.046747
0.233247 0.144753 -0.017687
-0.068233 0.115171 -0.153873
-0.210505 -0.222444 -0.267500
-0.160596 -0.221732 -0.370248
0.224388 0.143010 -0.206489
-0.066943 0.256816 0.146242
0.096314 0.150158 0.487249
0.224450 0.296243 -0.078889
-0.276603 -0.276242 -0.311905
0.337074 0.096562 0.140095
0.145235 0.371870 -0.094593
-0.097948 -0.436981 -0.359799
-0.365799 -0.199192 0.066500
-0.279726 -0.298099 -0.370978
0.008563 -0.057916 -0.280957
-0.451770 -0.306788 -0.033936
0.143726 0.419038 0.105056
-0.161138 0.125665 -0.047429
-0.204998 -0.121173 0.155917
0.257611 0.185511 0.029114
-0.306974 -0.210683 -0.053052
0.273764 0.169987 0.048629
0.566960 0.065794 -0.172060
0.316841 0.254132 0.068360
0.446045 0.157281 -0.124739
-0.056473 -0.098022 -0.305695
-0.190997 -0.197001 -0.350077
0.146870 0.214268 0.503322
0.006181 0.060002 -0.161781
-0.131884 0.033749 0.098089
-0.196418 -0.355965 -0.397604
0.255019 0.186177 -0.075265
0.179730 0.228727 0.440478
0.518473 0.157023 -0.125539
0.145172 0.121930 0.125276
0.131173 0.439722 0.039366
-0.047219 0.067441 -0.195510
0.101335 0.307388 0.197477
-0.092817 -0.092724 -0.152849
0.016494 0.153405 -0.137609
0.040249 0.063287 -0.126811
0.088170 0.090659 0.395887
-0.135448 -0.285612 -0.301848
-0.149174 -0.113130 0.143812
0.023921 0.181818 -0.145582
0.082009 0.157466 -0.144468
0.277737 0.115079 -0.136898
0.073758 0.416882 -0.057603
0.008981 -0.042119 -0.100580
0.491102 0.170616 -0.183295
-0.089756 0.050359 -0.198526
-0.068209 -0.067170 -0.059412
-0.107444 0.175322 -0.092990
0.032743 -0.049332 -0.249893
0.222268 0.111605 -0.041900
-0.198204 -0.061514 0.154012
0.078494 0.101261 0.339743
0.539760 0.165009 -0.170311
0.349116 0.212838 0.104825
0.002133 0.310875 0.187164
-0.132872 -0.367121 -0.328197
0.172823 0.253659 0.187747
-0.046091 0.372082 -0.032316
0.071031 0.220957 0.462567
-0.275247 0.028725 -0.171005
-0.148420 -0.138487 -0.265003
0.013210 0.249487 -0.152993
0.158547 0.122498 0.115324
0.160417 0.189182 0.524452
-0.029260 -0.137049 -0.171397
-0.369025 -0.313631 0.043594
0.575123 0.104256 -0.110400
-0.153677 -0.385630 -0.321232
-0.115792 -0.086548 -0.152311
0.318502 0.025730 0.133035
0.210728 0.404144 0.045886
0.110061 0.436613 -0.005638
-0.276959 -0.119863 0.018676
0.022079 0.144056 0.447471
0.038368 0.222637 0.349529
-0.102295 0.290368 0.068261
-0.229918 -0.070547 0.141221
-0.096988 0.042723 -0.209225
0.088042 0.115110 0.463693
0.265024 0.226973 -0.048564
-0.281461 0.009646 -0.161183
0.078139 0.424552 0.107131
0.092766 0.444777 0.028236
0.007968 -0.149718 -0.302268
-0.165178 0.096539 -0.058955
-0.250781 -0.256013 -0.317758
-0.040769 -0.211126 -0.312370
0.052845 0.294013 0.211455
-0.151610 -0.010677 0.138931
0.025363 0.107112 0.329333
-0.266966 -0.235975 0.086445
0.522077 0.101107 -0.140871
-0.230650 -0.203683 0.017416
-0.049616 0.203092 0.251579
-0.008494 -0.014552 0.036811
0.163161 0.141979 -0.161268
-0.154163 -0.299223 -0.313052
0.072205 0.144737 0.212943
0.300860 0.110761 -0.207626
0.299693 0.209514 0.029638
-0.138082 -0.019495 -0.162795
0.216019 0.353497 0.151531
0.220112 0.222296 0.510637
0.300076 0.028769 0.163808
0.080087 0.113522 -0.124408
0.236445 0.137302 -0.093849
0.546288 0.147858 -0.172804
0.242551 0.193595 -0.213616
-0.230012 -0.043963 0.131572
0.397518 0.268639 0.058989
-0.117660 0.252812 -0.003159
0.193546 0.115167 0.101452
0.041826 0.389879 0.155823
0.200383 0.223266 0.201449
-0.091430 -0.424353 -0.350039
0.580051 0.093259 -0.147044
-0.315120 0.026202 -0.171944
-0.060523 -0.032551 -0.289618
-0.204171 -0.047246 -0.013424
-0.062493 -0.198657 -0.234162
-0.415865 -0.211436 -0.005731
0.067898 0.426384 0.107175
-0.102737 0.156858 -0.115851
-0.221587 0.019310 -0.147248
-0.296250 0.047285 -0.181201
0.100163 0.186516 0.217435
-0.114707 -0.242205 -0.230828
0.351277 0.288392 0.074818
-0.145835 -0.296689 -0.333087
0.189974 0.383514 0.128523
0.064453 0.132921 0.204756
-0.256799 -0.269566 -0.356543
-0.394585 -0.191176 0.019726
0.464057 0.159201 -0.225830
-0.202543 -0.005345 -0.015038
0.211392 0.386780 0.099509
-0.191869 -0.150709 0.147085
0.109006 0.162555 0.372367
0.227246 0.198486 0.488320
-0.214496 -0.080316 0.153450
0.275496 0.242624 0.222759
0.226185 0.090679 0.093813
-0.291259 -0.126050 0.063148
0.012805 0.120314 0.223122
-0.290186 -0.186601 -0.043843
-0.008565 0.387980 0.128585
0.333753 0.243608 0.251630
-0.304330 -0.306637 -0.338785
-0.411215 -0.198757 -0.023561
0.209676 0.113977 0.126519
0.207172 0.210060 -0.204628
-0.315048 -0.348705 0.002034
0.117780 0.342638 -0.125882
0.379567 0.263160 0.119856
0.034367 -0.092206 -0.196563
0.221857 0.197133 0.480907
-0.138561 -0.205267 -0.366904
0.331194 0.071771 0.094539
0.221845 0.227364 0.491148
0.067730 0.129502 0.318411
-0.238408 -0.127668 0.007179
0.283871 0.058287 0.184237
0.012129 0.301257 -0.145792
-0.255868 0.034884 -0.100545
-0.039363 0.049854 -0.216442
0.520524 0.034467 -0.202390
-0.364118 -0.152269 0.003579
0.093409 0.294527 -0.160451
0.178037 0.079119 -0.068925
0.053870 0.028241 -0.073986
-0.047294 -0.151967 -0.202258
0.094452 0.302130 -0.158011
-0.035524 -0.140598 -0.182655
-0.139449 -0.235865 -0.360128
-0.184076 -0.228010 -0.369521
-0.073976 0.310380 -0.063142
0.265429 0.191970 0.199876
0.046485 0.368140 -0.109848
-0.316062 0.070882 -0.180011
-0.083043 0.338930 -0.002648
-0.354519 -0.270491 0.035601
0.297314 0.178143 0.190463
0.201486 0.080996 -0.010919
0.063415 0.290392 0.215000
-0.100746 0.227290 0.111147
0.188970 0.342998 -0.088324
0.000556 -0.076547 -0.291485
0.516303 0.054484 -0.162294
0.189266 0.108624 -0.083587
-0.083109 -0.217416 -0.345646
-0.069709 0.149366 0.119601
-0.236432 -0.264171 -0.356229
0.024318 0.061853 -0.141918
0.137098 0.067693 0.090002
0.141535 0.126045 0.486033
0.295542 0.114030 -0.145487
0.253346 0.172461 -0.086835
0.168178 0.155895 0.148439
0.307438 0.079458 0.188412
-0.047666 0.182439 0.267534
0.281694 0.226330 -0.148641
0.474938 0.095305 -0.222147
0.220377 0.141242 0.029500
0.238084 0.294293 -0.057632
0.211431 0.161309 0.496279
0.356822 0.122652 -0.258358
0.201368 0.161476 0.526202
0.031373 0.002708 -0.114322
0.285893 0.070479 0.087800
0.276918 0.205123 -0.106201
0.033927 0.109934 -0.130152
0.226286 0.103031 0.083234
-0.056989 0.219103 0.154076
-0.382164 -0.342410 0.067989
-0.340782 -0.202675 -0.058081
0.548415 0.070606 -0.147877
0.517059 0.027225 -0.187221
-0.084133 -0.243950 -0.272842
-0.021055 -0.024303 0.035394
0.106095 0.310423 -0.153972
0.004867 0.126157 0.394111
0.129841 0.168597 -0.153751
-0.225915 -0.220127 0.065035
0.062568 0.412488 -0.056863
-0.098620 0.314514 0.036412
0.096663 0.152740 0.337432
0.225937 0.122340 -0.038937
-0.139706 0.027324 0.103685
-0.091489 -0.183430 -0.349055
-0.202285 -0.310457 -0.402806
0.036216 -0.005217 -0.090779
-0.034955 -0.138878 -0.178495
0.142648 0.144958 0.440636
-0.134243 -0.061519 -0.166713
-0.247636 -0.237856 0.049394
-0.028079 0.029785 0.076055
0.341960 0.176192 0.137971
-0.009456 0.169971 0.385535
0.188834 0.120226 0.518239
-0.230801 -0.179820 0.014541
0.455783 0.277085 0.079743
0.005656 -0.091801 -0.294650
0.410995 0.165326 -0.261268
-0.231836 -0.233290 -0.339374
0.076141 0.236940 0.442840
0.049819 0.402420 0.144222
0.141003 0.078401 0.058928
0.247317 0.176609 0.002425
0.310170 0.201041 -0.134135
0.173271 0.244519 -0.165162
0.076386 0.081724 -0.105288
-0.374602 -0.226660 -0.067607
0.102373 0.444445 0.053940
0.249709 0.168481 -0.085089
-0.159659 0.103614 0.021833
-0.119312 0.248209 0.038765
-0.301440 -0.258943 0.032205
-0.045993 0.186645 -0.128268
-0.291743 -0.322135 -0.306620
0.437239 0.170829 -0.251339
-0.151686 -0.270174 -0.254512
0.556762 0.153776 -0.161038
-0.013702 0.275100 -0.139785
0.363966 0.208693 -0.202868
-0.198508 -0.178072 -0.289180
0.213394 0.103092 0.089332
-0.353478 -0.378355 0.089101
0.122925 0.371120 -0.100035
0.472325 0.170823 -0.207440
0.516464 0.046927 -0.164220
0.579692 0.067218 -0.150515
0.112988 0.107478 -0.116825
-0.165428 0.068050 -0.108498
0.448647 0.272796 0.085017
-0.096197 -0.012353 0.102726
0.143081 0.209762 0.386220
-0.225626 -0.339280 -0.403603
-0.242574 -0.256167 -0.345173
-0.110744 0.172076 0.064694
-0.165492 -0.303288 -0.307614
0.275481 0.299306 0.008416
0.155868 0.147332 0.535355
-0.096714 -0.078506 0.091109
-0.130771 -0.126530 -0.304681
0.001781 0.039340 0.084577
-0.011889 -0.052220 -0.061593
-0.282491 -0.300879 -0.300222
0.381353 0.092168 -0.240658
0.271167 0.072609 0.186154
0.067424 0.009385 -0.027426
-0.000747 -0.137649 -0.299648
0.137297 0.175960 0.187870
0.163886 0.195284 0.185400
-0.341027 -0.269188 -0.044044
0.359214 0.256167 0.054996
-0.001801 -0.095995 -0.145253
0.047036 0.098591 0.337437
-0.179133 -0.177389 0.055939
-0.028234 0.071356 -0.181993
-0.190271 -0.360773 -0.391426
0.017407 -0.062861 -0.143050
-0.035118 0.309263 0.166635
0.081940 0.222237 0.462216
-0.023828 0.211522 0.311035
0.012293 0.415384 0.105797
0.006251 -0.077895 -0.288756
-0.110041 -0.403772 -0.361609
0.350104 0.164767 -0.252038
-0.049888 0.226699 0.222012
0.193234 0.203348 -0.204383
-0.129848 -0.064508 0.136564
0.436519 0.075619 -0.171554
-0.131899 -0.090729 0.007712
-0.182231 0.007277 -0.061762
0.123386 0.279357 -0.157604
0.026968 0.305204 0.199841
-0.402283 -0.370743 0.063399
-0.211589 -0.301093 -0.292629
-0.374634 -0.341394 -0.055879
-0.420778 -0.295388 -0.104508
-0.158985 0.078454 -0.098359
-0.247212 -0.128979 0.128392
-0.183548 0.066543 0.009795
