-0.049723 0.226254 -0.155443
0.246493 0.108759 -0.231814
0.172726 -0.133626 0.230406
-0.027913 -0.434612 0.137984
0.018390 -0.417153 -0.017751
0.136069 -0.203630 0.181820
0.173849 -0.420608 0.083653
0.022735 0.133830 -0.180922
0.176428 -0.193160 0.029367
-0.066359 0.218536 -0.170192
-0.100919 0.140630 0.107146
0.003572 -0.293409 0.259952
-0.384554 0.152610 -0.038618
0.202414 0.051074 -0.091501
-0.045672 0.229602 -0.126346
0.253527 0.099708 -0.046405
0.016166 -0.547587 0.157332
0.040282 -0.584659 0.042221
0.112174 -0.116249 0.142822
0.255789 0.066888 -0.173248
0.229897 0.057738 0.023708
0.095136 -0.265485 -0.132734
0.215882 0.052577 -0.033867
-0.185406 0.067443 0.080052
-0.029506 0.262202 -0.121083
0.138297 -0.197457 -0.077556
0.306242 0.300777 -0.151219
0.271488 0.157180 -0.016256
0.018093 -0.438302 -0.084957
-0.035041 -0.440766 -0.067435
0.159606 0.026621 0.244966
0.275689 0.288790 -0.177977
0.228337 0.018410 0.204080
0.074163 -0.139733 -0.056276
0.097406 0.064469 0.009289
0.271145 0.160675 -0.213482
-0.046139 -0.429565 0.241240
-0.282982 0.054909 0.116071
0.259968 -0.176733 -0.165875
0.222686 -0.355999 0.052243
0.131798 0.088884 -0.019078
0.192158 0.165404 -0.209517
0.232930 0.072085 0.043922
0.246168 0.045650 -0.158200
-0.128669 -0.092214 -0.055491
0.188213 0.033418 -0.217584
0.118502 -0.292960 -0.050204
0.026819 0.123031 0.077562
-0.016378 -0.312250 0.292878
0.260879 0.107184 -0.086415
0.225819 -0.017520 -0.190541
0.299775 0.278921 0.062163
-0.078715 -0.308030 0.127782
-0.211413 0.089209 0.054990
0.139545 -0.459012 -0.012906
-0.037635 -0.133759 0.053262
0.143482 0.153385 0.099653
-0.023867 -0.448953 -0.090547
-0.065445 -0.519012 -0.015422
-0.112873 0.165050 -0.208782
0.045452 0.236978 0.063230
-0.092144 -0.110230 -0.038052
-0.102035 -0.564037 -0.018547
0.407176 0.144333 -0.088754
-0.037282 -0.314596 0.012873
-0.017756 -0.397001 0.222726
0.072289 0.147667 0.071876
0.024742 -0.354059 0.129361
0.137270 0.104098 0.069546
-0.107999 -0.479970 0.296053
0.169103 -0.428860 0.076871
0.032387 -0.490090 0.265330
0.296404 0.328256 -0.137149
0.017662 -0.192946 0.080786
-0.023785 -0.359210 0.300674
-0.081991 -0.402669 0.302681
-0.028107 -0.330672 0.282698
-0.182769 0.142143 -0.149397
0.189916 0.001138 0.082273
-0.008401 -0.443151 0.284525
-0.056917 -0.521453 0.222655
0.105669 -0.003849 -0.128754
-0.009728 -0.563184 0.104793
0.058478 0.129900 -0.132948
0.015998 -0.345646 0.134949
-0.046996 -0.481253 0.063330
-0.059839 -0.098950 -0.046249
0.040097 -0.204177 0.156734
-0.175262 0.027866 -0.146833
-0.111383 0.006035 0.094490
-0.045486 -0.455846 -0.068867
0.133226 0.031629 -0.241727
0.175567 -0.018129 -0.249795
0.200114 -0.363766 0.130782
0.052522 -0.484124 0.258972
-0.128649 -0.472580 0.250337
-0.102700 0.038414 -0.138211
-0.102905 -0.542344 -0.053190
-0.132527 0.011848 -0.141469
-0.274746 0.013114 0.017015
0.219410 -0.355409 0.099432
0.371465 0.033079 -0.138613
0.038160 -0.585898 0.047335
0.107323 0.121834 0.021127
-0.039839 -0.510459 0.115790
-0.297306 0.068535 -0.049943
-0.224584 0.080865 -0.124662
0.408112 0.232126 -0.046044
0.133645 -0.187037 -0.072000
0.016375 -0.408535 0.280938
-0.125986 0.263040 -0.052712
0.135678 -0.465634 -0.009782
0.252011 0.102288 -0.024688
0.167766 0.084060 -0.090044
0.272788 -0.132661 -0.179473
-0.062682 -0.050690 0.107236
0.237756 0.345926 -0.135796
0.192874 0.202920 -0.208939
-0.172248 -0.044500 -0.035831
-0.214592 0.076769 0.026118
0.011260 -0.046252 0.111447
0.369434 -0.124425 0.161811
0.219383 -0.097417 0.164874
0.326801 0.353340 -0.082400
0.090104 -0.337074 -0.082502
0.192040 -0.154145 0.257956
0.163380 -0.080550 -0.217510
-0.014697 -0.141850 0.090832
-0.183545 0.000214 0.126281
0.081300 -0.218463 -0.065579
0.149909 0.095607 0.203648
0.220041 0.047913 -0.243288
-0.069721 -0.525220 0.011867
-0.214143 0.044028 0.056335
0.414152 0.058332 0.064331
-0.039856 -0.084750 -0.114899
-0.059791 -0.273733 0.159733
0.128473 -0.133547 0.129475
0.134873 0.023167 -0.144432
-0.024004 -0.528757 -0.037186
-0.013469 -0.137000 -0.057340
-0.317704 0.188272 -0.091047
-0.045043 0.212331 0.055477
0.077212 -0.325869 0.017736
0.242546 -0.126499 -0.159046
0.212434 0.030686 -0.135988
0.082025 0.047074 -0.073004
0.132245 -0.208566 0.182383
0.317276 -0.164938 -0.130584
-0.002264 -0.124003 0.029060
-0.137027 -0.037063 0.082697
0.079680 0.121559 -0.120964
0.356112 -0.210892 -0.071715
-0.209586 -0.025242 -0.010703
-0.224317 0.074365 -0.148625
-0.104660 0.108683 0.105185
0.255760 -0.288151 0.165661
0.135080 0.123949 -0.053046
0.165558 0.025997 -0.145268
-0.059527 -0.137852 -0.030034
-0.373243 0.169072 0.005836
0.236048 0.337405 -0.148534
-0.053638 -0.460309 0.168201
-0.077759 0.110467 -0.173570
0.382813 0.154544 0.068247
0.400115 -0.107047 0.126002
0.228760 -0.101384 -0.068378
0.190365 -0.072248 0.229468
-0.189534 0.198900 0.085191
0.071566 -0.505154 -0.012239
-0.217273 0.067232 0.005123
0.167060 0.053253 0.255931
-0.085478 -0.132232 -0.087198
0.314656 0.335855 -0.117308
-0.015814 0.280525 0.076810
0.250254 0.158256 0.137134
-0.092093 0.093637 -0.133033
-0.116218 0.102144 -0.135883
0.258752 -0.172347 0.228326
-0.113614 -0.475373 0.176698
-0.015116 0.169101 -0.157492
0.087300 -0.493288 0.143153
0.295253 0.373981 -0.064565
0.327341 -0.198517 0.145400
0.096862 -0.317739 -0.098363
0.177073 0.025332 -0.219934
-0.311842 0.100950 -0.078731
0.246136 -0.074515 -0.009981
0.222124 0.123433 -0.204487
-0.041261 0.295882 -0.083067
0.199308 -0.029413 -0.206849
-0.049186 0.110552 -0.138439
0.318553 0.007403 0.190195
0.393821 -0.123079 0.099094
0.301211 -0.248757 0.085017
0.016858 -0.409563 -0.107781
0.263162 -0.187572 0.223433
0.123139 -0.484291 0.097362
0.249773 0.323296 -0.006285
0.281357 0.317918 -0.008099
0.338615 -0.225256 -0.001602
-0.094920 0.294113 -0.121068
0.093816 0.109296 -0.081499
-0.011224 -0.027207 0.124058
0.264677 0.344990 -0.105022
0.162660 -0.317321 -0.114659
0.158286 -0.137165 -0.225322
0.185886 -0.405604 0.075037
-0.125228 -0.102171 -0.061790
-0.082190 0.253063 0.025594
-0.010322 -0.044500 0.107579
0.200849 -0.124666 -0.217328
-0.001665 -0.128781 0.011696
-0.032163 -0.439126 0.142033
0.249162 -0.084054 0.072229
-0.096333 -0.062832 -0.081898
-0.122895 0.100809 -0.135465
0.135983 -0.212312 0.096830
0.027475 -0.397539 -0.067630
-0.060820 -0.566537 -0.020991
-0.049032 -0.473347 -0.080215
0.201878 -0.019759 0.221600
-0.062115 -0.543310 0.131932
0.300667 0.205531 -0.139569
-0.312774 0.141263 0.008898
0.319015 0.016845 0.188029
0.152320 -0.204218 0.103526
-0.009535 -0.567449 0.088436
0.041256 0.057523 -0.161186
-0.063206 -0.402464 0.304522
0.063888 0.137900 -0.125507
-0.164098 0.023618 -0.145409
0.039252 -0.214697 -0.066654
0.131657 0.100249 0.082327
-0.054227 0.275133 0.025893
0.080942 -0.092206 0.146622
-0.204358 -0.033061 -0.026118
0.376875 0.037816 -0.132617
0.235347 -0.316525 0.131797
0.310782 -0.064686 0.204516
0.013736 -0.229215 -0.028458
0.252150 0.145760 0.115873
0.297288 0.302656 -0.154218
-0.026911 -0.154302 0.003561
-0.019166 -0.221956 0.151423
0.381411 -0.183603 -0.055731
-0.056148 0.189332 -0.199295
0.163990 0.022208 0.068685
0.025826 -0.313907 0.180026
-0.088561 0.241390 0.048392
-0.343875 0.177111 -0.106681
0.099049 -0.276851 0.271376
0.212665 -0.027230 0.054074
0.389659 -0.143101 0.048145
0.096162 -0.494916 -0.007733
0.131420 0.113764 -0.128990
0.202045 -0.112996 0.191366
-0.044015 -0.351266 0.085716
0.132458 0.024823 -0.242603
-0.086448 -0.492832 0.097625
-0.000661 -0.035920 0.119466
0.078468 -0.325654 0.155476
0.245998 0.066989 -0.087136
-0.036771 0.219774 -0.132217
-0.182286 0.063832 0.080860
-0.007676 -0.581738 0.031065
0.407710 -0.059776 -0.069159
-0.204504 0.133428 -0.056500
0.039662 -0.119725 -0.090047
0.216747 -0.044900 -0.002088
0.154562 -0.247721 -0.060116
0.164005 -0.195676 0.078779
0.134265 -0.391284 0.241145
-0.057402 0.089525 -0.142545
-0.368888 0.184035 -0.001491
0.309909 -0.257508 -0.077789
0.022867 -0.167270 0.146747
0.179944 -0.375808 0.212754
0.045662 -0.263970 0.138776
0.048537 -0.370341 -0.079023
-0.235843 0.096851 0.123029
0.310530 0.298648 -0.093968
-0.144507 0.215094 -0.113699
0.170619 0.244495 0.121470
0.247135 0.079165 0.216888
0.203826 -0.123703 0.145327
0.421949 0.173262 -0.015509
0.179899 0.115281 0.114925
0.285735 -0.303660 -0.029530
0.365905 -0.205333 -0.059480
0.106500 0.056507 0.011741
0.208336 0.246445 0.144809
-0.168652 0.095482 -0.123505
-0.075665 0.215435 -0.137460
0.075677 -0.270396 0.168414
0.071764 -0.175339 -0.084975
0.249969 0.199642 -0.177770
0.274580 -0.281709 -0.081032
0.304315 -0.046986 -0.186956
0.069426 0.075577 -0.005443
0.100616 0.148660 0.106531
0.105417 -0.194441 0.174878
0.325011 -0.088416 0.195426
-0.052756 -0.356050 0.043342
0.171298 -0.005638 -0.252404
-0.312329 0.137017 -0.015558
0.232660 0.363578 0.020612
-0.021749 -0.521563 0.119523
-0.085429 -0.042501 0.102148
0.067653 0.196515 0.096026
-0.172702 0.130796 0.106709
0.140028 -0.443743 -0.024737
-0.162264 0.070697 -0.167683
0.223549 0.296494 -0.172478
0.199557 0.145415 0.169585
-0.082756 0.291601 0.089429
-0.165722 0.124394 0.069323
0.384797 0.021234 -0.120319
-0.216400 0.006205 0.069012
0.103655 -0.157278 0.133435
0.177604 0.267862 0.142833
0.257257 -0.086818 -0.017423
0.009442 -0.388366 0.080200
0.325338 -0.030066 -0.174167
0.435309 0.017481 0.036740
-0.060343 0.152109 0.099412
-0.009742 -0.335431 0.298125
0.244479 -0.294808 0.195146
-0.039044 -0.549514 0.127554
-0.037365 -0.487697 -0.004529
0.218907 -0.001169 0.212244
-0.377949 0.164464 -0.027876
0.066015 -0.495786 0.252678
-0.154597 0.046974 0.119045
0.253576 0.307940 0.066887
0.275265 0.223682 -0.162141
0.068697 -0.518917 0.122160
0.285686 -0.266685 -0.086946
-0.282869 0.013659 -0.007587
0.226067 -0.013162 -0.173753
0.143255 -0.015936 -0.233437
0.229054 -0.044060 0.153816
-0.214549 0.042654 0.118099
0.276766 0.332546 -0.048034
-0.031147 0.249144 -0.180421
0.284085 -0.307679 -0.035930
-0.096869 0.199334 -0.219816
0.110318 -0.144021 0.245588
0.077957 -0.246594 0.120186
-0.018237 0.232106 -0.100085
-0.098032 -0.556553 0.023679
-0.193884 0.015340 0.003061
-0.018491 0.293051 0.046377
-0.052607 -0.081498 -0.075672
0.082432 -0.196620 0.167404
-0.204028 0.166617 0.055561
-0.049493 -0.523769 0.222994
-0.048203 0.322387 -0.024947
0.220301 0.319372 0.021308
-0.375008 0.109975 -0.050149
-0.221717 0.028376 -0.029594
0.200165 -0.053711 0.260687
0.245446 0.241249 -0.206425
0.063675 -0.396185 0.035924
-0.058388 0.224713 -0.215990
-0.182409 -0.052679 -0.037794
-0.010735 -0.341600 -0.012161
-0.389330 0.125744 -0.028405
0.154010 0.086415 -0.133106
0.447696 -0.035643 0.013132
0.147101 -0.023571 -0.134374
0.015619 -0.571480 0.096620
0.135620 -0.079790 0.242069
0.283045 0.107423 -0.213464
0.139175 0.105086 -0.114009
-0.041062 0.296290 0.072915
-0.086372 -0.502583 0.116475
0.148595 0.133617 0.231777
0.230124 -0.033052 0.097187
0.120354 -0.102020 0.244301
-0.011303 -0.091362 0.150870
-0.019135 -0.451826 0.036221
-0.023224 -0.132980 0.100391
-0.050172 -0.564988 0.061733
0.203912 -0.028835 0.110929
0.185664 -0.158862 0.259396
0.441528 -0.076115 0.040622
0.213325 0.274318 0.073254
-0.107898 0.017655 -0.148571
0.224942 0.113315 0.213638
-0.048393 0.269440 0.025086
-0.129653 -0.492661 0.227261
0.105554 -0.229521 -0.152828
-0.184503 0.153396 -0.100640
0.022600 -0.547537 0.195822
0.287975 0.268501 0.036320
0.156325 -0.362893 0.236759
0.314884 0.111392 -0.192383
0.424036 -0.011376 -0.051470
0.009448 -0.574036 0.011456
0.235939 -0.127428 -0.018416
-0.077713 0.019961 0.109335
0.110560 -0.509335 0.068217
0.130143 0.144193 -0.015479
0.093357 -0.239282 0.240129
0.143843 0.054995 -0.261851
0.283204 -0.202223 -0.135423
0.217448 0.049363 -0.040931
-0.061756 -0.061178 -0.122665
0.209955 -0.372444 0.082234
0.160563 0.118230 0.021213
-0.069879 -0.057354 -0.083609
-0.366574 0.165743 -0.027407
-0.069389 -0.328717 0.102281
0.152781 -0.132281 0.237244
0.001491 -0.122107 0.048147
0.252311 -0.088525 0.041721
0.127639 -0.182479 -0.072365
0.208069 0.195177 0.137902
0.228130 0.115454 -0.202784
0.141398 0.046024 -0.228529
0.403264 0.119320 0.056275
-0.166508 0.203279 -0.030044
-0.089925 0.029377 0.099384
0.137610 -0.215345 0.089628
0.340559 0.203414 0.087354
-0.044511 -0.404296 0.297988
0.418847 0.147622 0.010452
0.192973 0.124772 0.219290
0.369218 0.134243 0.097764
0.257621 0.312268 -0.180199
-0.064113 0.349942 0.067977
-0.137589 -0.014233 0.131729
-0.030082 -0.446485 -0.053422
-0.040131 0.309825 0.031692
-0.287373 0.147750 -0.034094
-0.142196 -0.092522 -0.074848
0.076994 -0.547748 0.090454
-0.201787 0.112383 0.121405
-0.371106 0.138983 -0.000087
-0.153154 0.120285 -0.108893
0.039699 -0.066863 0.115265
-0.192894 -0.000953 -0.059300
-0.114755 -0.107002 -0.049173
0.315319 0.182670 0.125370
0.062791 -0.266625 0.248224
0.230931 0.050999 -0.007327
-0.211433 -0.033182 -0.073857
0.180154 0.087473 0.121094
0.372229 -0.189612 -0.033814
0.270809 0.329042 -0.155186
0.244121 0.242846 0.131274
-0.190200 0.184577 0.039401
-0.154497 0.182436 -0.170054
-0.332533 0.141125 -0.102706
0.197128 0.253194 0.152992
-0.232324 0.134244 0.103774
0.371409 -0.099431 -0.105940
0.031482 -0.330590 0.225521
-0.088528 0.326432 -0.045477
-0.120743 -0.511013 0.182206
0.136135 -0.177341 -0.196677
0.054401 0.181240 -0.157296
0.018891 -0.200500 -0.041993
-0.333038 0.119257 -0.086640
-0.014832 -0.334479 -0.014807
-0.078463 -0.315588 0.125788
-0.051481 0.234489 0.050883
0.050844 -0.583517 0.081572
0.083061 -0.167988 0.168946
0.173975 -0.333546 -0.095913
-0.053064 -0.327945 0.154618
-0.079983 -0.501419 0.099969
-0.018324 0.236586 -0.182369
0.160053 -0.190601 0.115181
0.244222 0.382021 -0.074700
-0.154619 0.132901 -0.057618
-0.111813 0.220865 0.051213
0.207593 0.125883 0.176245
-0.071058 -0.523425 -0.015044
-0.179879 0.168982 -0.072981
-0.028710 -0.465011 0.034723
0.351055 0.123061 -0.160916
0.304564 0.214873 0.112421
-0.010486 0.180696 -0.196339
0.213485 -0.306774 -0.096464
0.028025 -0.211929 -0.034641
0.241438 -0.064494 0.143422
0.039968 0.114318 -0.174494
0.156287 -0.055159 -0.214050
0.155089 0.135250 0.069412
-0.273505 0.031682 -0.017853
-0.068280 -0.489304 0.144062
0.286220 0.344179 -0.135680
0.179911 -0.415396 -0.025361
0.169029 -0.352273 0.233297
-0.176400 -0.021069 0.039981
-0.199190 -0.000681 0.093957
-0.021827 -0.420080 0.160588
0.145877 -0.035744 -0.107554
0.216367 0.042690 0.240131
0.020704 -0.288205 0.006930
0.060246 -0.199443 -0.071855
0.086654 -0.362926 0.051218
0.108735 -0.217611 -0.065783
-0.000595 -0.358912 0.027906
0.087606 -0.318756 -0.010694
-0.148534 -0.020490 0.069191
0.141520 -0.461911 -0.009561
-0.149972 0.080734 0.078483
0.315022 0.278679 -0.023937
0.218892 -0.172350 -0.096574
0.024965 -0.257369 -0.001074
0.266863 0.244373 0.067619
0.105915 0.124979 0.028519
-0.136571 0.186439 0.046167
0.061563 0.049604 -0.118211
0.029266 -0.278241 0.142239
-0.195214 0.033654 0.072500
-0.031477 -0.099832 0.036851
0.086586 -0.404469 0.257414
0.081362 -0.394102 -0.092452
0.168745 -0.154279 0.167244
-0.263397 -0.010477 -0.047341
-0.043595 -0.461183 -0.084612
-0.082776 -0.560123 0.039297
0.097669 -0.290045 -0.018988
-0.038174 -0.330291 0.021594
0.000511 0.130260 -0.179815
-0.313362 0.196168 -0.081089
0.366695 -0.076878 0.159571
0.154090 -0.243626 -0.129576
-0.168547 0.007250 -0.140071
-0.017435 -0.384987 0.021614
0.054942 -0.353432 0.275573
0.076434 -0.361015 0.105880
0.180667 -0.120635 -0.188064
-0.072019 -0.092359 -0.056993
-0.050004 0.227529 0.086312
-0.130674 -0.493456 0.220762
0.082738 -0.148540 -0.053374
0.267278 -0.287208 0.114954
0.217299 0.232260 -0.184048
0.008467 -0.230543 -0.008417
-0.063000 -0.525745 0.199285
0.242274 0.217969 0.150200
0.038032 0.081825 -0.128811
0.261590 0.097691 0.203189
-0.216698 0.040328 -0.167922
-0.100398 -0.482096 0.108178
0.231380 0.040396 -0.045824
0.037357 -0.241935 0.007665
-0.180704 0.189085 0.001265
0.033281 0.165203 0.067214
0.226441 -0.306251 0.216838
-0.060690 -0.524455 -0.052904
-0.063741 -0.108728 0.036616
0.224631 -0.081470 -0.074902
0.375994 0.259585 -0.012707
-0.195633 0.063842 -0.108312
0.282729 -0.196697 0.212598
0.097396 0.141725 -0.018581
0.097801 -0.279814 0.050642
0.256717 0.309180 0.063424
0.058793 -0.489056 0.126119
0.146411 -0.268581 -0.111555
-0.001538 0.213287 -0.146340
0.027115 0.175763 -0.194623
-0.017287 -0.461742 -0.007349
-0.177367 0.208741 0.102303
0.228925 -0.028855 -0.147158
0.142563 0.145014 0.061158
0.439149 -0.048231 0.049065
-0.103596 -0.081292 0.088074
0.151505 0.178347 0.210237
0.335853 -0.098560 -0.143647
0.303288 0.144305 -0.196787
0.228577 -0.066831 0.250550
0.170824 -0.283922 -0.136741
0.095447 0.130183 -0.174282
0.153290 0.190867 0.202869
0.023855 -0.154197 -0.012343
0.127964 0.112730 0.063128
-0.106705 0.263824 -0.159118
-0.167043 0.200934 -0.035130
0.274491 0.124705 -0.148474
0.338864 -0.093981 0.185184
-0.029095 -0.569892 -0.007896
-0.097648 0.124514 0.110446
-0.149768 0.007818 -0.105143
0.128326 0.064472 -0.027978
0.229774 0.001180 -0.159628
0.052065 -0.208878 0.285530
0.267188 0.403820 -0.074405
0.405026 0.085384 0.069161
0.011110 -0.301514 0.010255
-0.075088 -0.498272 0.279455
0.059297 -0.579924 0.060209
0.315894 0.287374 -0.032512
0.020441 -0.115496 0.122623
0.361457 -0.161528 0.115571
0.021277 -0.401822 0.280218
0.160534 0.023647 0.224711
-0.232640 0.028200 0.115792
0.060018 -0.428824 0.263626
0.184784 -0.180621 0.034302
0.166077 0.190858 0.154123
-0.196594 0.109852 0.058140
-0.024105 -0.463570 -0.085194
-0.009490 0.103363 -0.135979
0.199272 -0.141318 0.104685
-0.025665 -0.287523 -0.028484
-0.112268 0.020401 0.091606
-0.119241 -0.462174 0.246933
-0.091545 0.235764 0.008585
0.004335 -0.350899 0.254463
-0.104612 -0.471571 0.200815
0.016897 -0.251551 -0.037194
0.224330 -0.130225 0.026195
-0.022240 -0.502661 0.120065
-0.194501 0.183162 0.058862
0.154826 -0.024593 0.272807
-0.052806 0.302830 -0.114897
0.221555 0.122261 0.211186
0.027743 -0.221834 0.127443
-0.029665 0.166997 -0.156845
0.233153 -0.330374 -0.064667
0.006072 -0.310146 0.295649
0.098718 0.061422 0.106735
0.084083 -0.521789 0.006706
0.229071 -0.313246 0.202523
0.220700 -0.188152 0.241465
0.302330 0.219440 -0.083401
-0.077503 -0.509823 -0.026482
0.419427 -0.102349 -0.037880
0.240998 0.045990 -0.111827
0.058339 0.039308 -0.136408
0.311484 0.251066 -0.060428
-0.087756 0.173237 -0.159046
0.248263 0.065309 -0.112462
0.416847 0.210562 -0.046589
-0.005489 -0.129531 0.156368
-0.113972 0.059712 0.122847
0.145609 0.060004 -0.260986
0.279052 -0.314091 -0.034896
-0.062689 0.148675 -0.150945
0.087926 -0.357830 0.063186
0.269974 0.225955 0.129075
-0.058287 0.207210 -0.205144
0.230699 0.025108 0.144421
0.149725 -0.010853 -0.069804
0.051417 -0.251956 0.012791
-0.018702 0.214803 0.055786
-0.008048 -0.364892 0.127218
0.025399 -0.330594 0.155884
0.186890 -0.009991 0.025509
-0.125221 -0.004679 -0.100983
0.395280 -0.111452 0.133177
0.247438 -0.028614 0.198922
-0.192828 0.167079 -0.006226
0.381870 -0.137151 0.105622
0.067757 0.036330 -0.117597
0.004569 -0.178012 0.004533
-0.121571 0.185523 -0.027414
0.103170 0.189004 0.060830
0.086548 -0.325553 -0.096621
-0.039003 0.189620 -0.164267
-0.118735 0.003073 0.128852
0.005489 -0.421949 -0.102384
0.124151 0.082544 0.055213
0.084705 -0.484902 -0.021308
-0.017624 0.242407 0.032955
0.167426 -0.144088 -0.224260
-0.174833 -0.009342 -0.037809
0.043063 -0.314029 0.179124
0.246183 -0.323866 -0.062241
-0.174096 0.009871 0.041552
0.138215 -0.184233 0.270705
-0.097832 -0.519510 0.169063
0.133109 -0.158723 0.169603
0.175757 -0.029054 -0.127247
-0.165716 0.130261 -0.014857
-0.112182 0.322542 0.075045
-0.043238 0.224626 -0.137244
0.222687 0.014161 0.244299
-0.065503 0.272063 -0.235470
0.416441 -0.072112 -0.051372
-0.056643 0.145772 -0.185050
0.360087 -0.176482 0.069361
0.150586 0.008860 -0.223879
0.151637 0.213083 0.185725
0.064941 -0.272993 0.169525
0.154139 -0.036873 0.236132
-0.305343 0.095114 -0.076339
0.189299 0.157152 -0.252065
-0.092488 -0.489752 0.286182
0.005675 0.214510 -0.180237
0.090743 -0.329504 0.149672
0.224001 -0.034172 -0.233252
-0.263786 0.061064 0.028735
-0.159312 -0.025315 -0.129402
-0.072679 -0.465315 0.138569
-0.270908 0.008014 0.006719
0.105068 -0.104268 0.272611
0.052140 -0.225107 0.287801
-0.269849 -0.002152 -0.031023
0.197229 -0.174930 -0.004040
0.200533 0.105404 0.224993
0.241720 -0.074209 -0.025629
0.045308 -0.145411 0.088416
0.002940 0.161761 0.106079
-0.077471 -0.474192 0.216064
0.130920 -0.130986 0.276204
0.160838 0.150525 0.177580
0.230492 0.024172 0.136469
0.412426 0.179241 0.000359
0.236083 -0.158082 -0.126988
0.001607 0.271710 0.078976
-0.206638 0.142506 -0.013028
-0.051103 0.277267 0.076394
0.245954 -0.117486 -0.063066
0.209141 0.055306 -0.247107
0.036141 -0.255555 -0.035528
0.096377 -0.341800 -0.124137
0.191339 0.057321 -0.108487
-0.156381 -0.019860 -0.131173
-0.113508 0.258740 -0.138196
-0.092151 -0.123030 -0.070210
-0.151237 -0.016020 0.131672
0.125012 0.048325 0.049329
-0.098955 -0.070018 0.121788
0.357259 0.141296 0.108236
-0.143241 0.254075 0.013967
-0.187344 0.106696 0.003643
0.115360 0.089767 0.084683
0.386573 -0.142388 0.065130
0.047228 -0.172240 -0.045720
-0.075568 0.247592 -0.024725
0.435419 0.012974 0.038070
0.135424 0.171465 0.191609
0.287904 0.309589 -0.026191
-0.136502 -0.021034 -0.095669
0.187100 0.150934 0.209066
-0.312208 0.203272 -0.069753
0.118998 -0.289933 -0.151566
-0.121697 0.154159 0.064731
0.240114 0.119338 0.135134
0.130531 0.136241 -0.045360
0.214865 -0.096774 -0.184419
-0.152216 0.237173 0.097533
0.257943 -0.318043 -0.059927
-0.258931 -0.010851 -0.037162
0.164527 -0.072119 0.270851
-0.049586 0.331470 0.007638
0.108947 -0.340832 0.024414
0.180628 0.103970 0.040043
0.260010 0.290026 0.036458
-0.121012 -0.560043 -0.018400
-0.037234 -0.242559 0.163655
0.136592 -0.131051 0.241104
0.043506 -0.228262 -0.042848
0.267795 0.262466 -0.176431
0.134447 0.147290 0.039356
0.252128 0.141011 0.100531
0.104605 -0.523208 0.047316
0.018566 -0.319286 0.254945
0.209900 0.046270 0.241370
-0.025472 -0.402318 0.240204
0.007604 -0.369716 0.149686
0.222804 0.048533 0.236264
0.291553 -0.188190 -0.137919
-0.133535 0.283377 0.060398
0.117558 -0.079483 0.267483
0.368206 0.061194 0.129048
-0.315443 0.120012 0.008329
-0.063825 -0.096285 0.123646
0.227378 0.093033 0.160906
0.200954 -0.159877 0.031472
0.263714 0.306707 -0.170871
0.178705 -0.164126 0.120879
0.042909 0.049499 -0.158559
0.439617 0.101264 -0.025855
-0.238647 0.104456 0.036507
0.315443 0.283872 0.049763
0.190021 0.151759 -0.252900
0.169656 -0.424500 -0.023794
0.276666 -0.276115 -0.084638
0.269656 0.191952 -0.168598
0.229446 -0.100443 -0.109021
0.422386 -0.096409 -0.034299
0.244697 0.084055 0.216365
0.005630 -0.428093 0.003595
0.205891 -0.152230 0.035230
-0.110821 -0.505118 0.218515
-0.134868 0.286212 0.084958
0.169648 -0.263663 0.248190
0.162199 0.015714 0.061731
-0.216109 0.018594 0.117447
-0.155577 0.232281 0.098401
0.184778 -0.397379 -0.037226
0.300117 0.081413 0.185244
-0.029815 -0.338029 0.266150
0.277528 0.250756 -0.189882
0.194302 -0.036152 -0.052451
0.419171 0.165001 -0.002665
0.198605 -0.031819 -0.018349
0.016516 0.208932 -0.170744
0.273318 0.314271 0.053882
0.257361 0.037452 -0.227545
-0.120618 0.272095 -0.051774
0.199676 0.124478 -0.248350
0.040564 -0.359223 0.159733
0.032635 -0.387244 -0.117332
-0.031935 0.263024 -0.127049
0.180511 0.074901 -0.078499
0.282886 0.184311 -0.027679
-0.059014 0.151556 -0.186953
-0.200614 0.080550 -0.026138
0.221072 0.204070 0.168747
0.098762 -0.210071 -0.007853
-0.149082 0.227434 0.099735
-0.370229 0.154387 -0.035120
0.137204 -0.105318 0.241955
0.010400 -0.146133 -0.089423
0.227917 0.229909 0.148643
0.133603 -0.493423 0.016134
-0.056618 0.229103 -0.170251
0.199720 0.305554 0.065726
0.250324 0.327655 -0.173973
0.269837 0.406833 -0.099696
0.028583 -0.053343 0.144796
-0.052321 -0.050705 0.141549
-0.166077 0.173273 0.110313
0.002017 -0.470214 -0.068620
0.118936 0.160112 0.003749
0.277157 0.050154 0.209650
-0.331435 0.213627 -0.022311
0.023912 0.246515 0.026305
0.423014 0.086658 -0.064504
-0.055754 -0.485439 -0.035795
0.004239 0.146506 0.103990
-0.309444 0.206467 -0.046299
-0.127940 0.094816 -0.133520
0.066516 -0.314748 -0.148048
-0.207698 -0.018822 0.020885
0.092556 -0.259166 -0.167508
0.308180 -0.180134 -0.129828
0.150505 0.053046 0.220336
0.131441 -0.203955 0.202386
0.172250 -0.361442 0.230504
0.377646 -0.138931 0.119172
0.252042 0.106611 -0.010879
0.246357 -0.141962 -0.118442
0.267754 0.195321 0.103093
0.278905 0.207035 0.078128
-0.069496 -0.480308 0.172130
0.312840 0.289748 -0.003457
0.049107 -0.440878 -0.071402
0.291117 0.171654 -0.153166
0.007570 -0.381516 0.158436
-0.189546 0.121418 -0.182676
0.004586 -0.358018 0.289667
-0.271332 -0.015167 -0.086771
0.023505 -0.173609 0.080024
0.197464 -0.054090 -0.202514
-0.043845 0.314794 0.001609
0.354613 -0.009846 0.161409
-0.264435 0.161162 -0.036407
-0.098116 -0.493159 0.097393
0.145343 -0.313401 0.249256
-0.001951 0.206538 -0.204444
-0.036056 -0.430480 0.190725
0.416278 0.135832 -0.074525
0.001734 -0.332894 0.140152
-0.015255 -0.324328 0.295843
-0.138696 0.259547 0.093477
-0.186688 0.153325 -0.088537
-0.174219 0.007221 0.030535
-0.215518 0.082109 0.049259
0.110959 -0.225987 0.157402
-0.040635 0.257554 -0.208516
-0.063414 -0.144249 -0.067568
0.266969 0.311064 -0.166781
-0.174397 0.058391 0.082183
-0.079379 0.190799 -0.164764
0.441856 -0.002975 0.028030
0.341558 -0.073838 0.181683
0.080680 0.147359 -0.166077
-0.109238 0.079421 0.098930
0.112128 -0.188044 0.121380
-0.000294 -0.421387 0.054983
0.329921 0.289542 -0.130046
-0.094644 0.141708 0.068018
0.028693 -0.295683 0.289412
0.092550 -0.185387 0.247332
0.170355 0.083675 -0.263697
0.115929 -0.330060 0.029578
0.013825 -0.378776 0.130129
-0.287296 0.090696 0.011022
-0.120798 0.083197 -0.164767
0.269343 0.006247 0.223694
0.320622 -0.220710 0.098803
0.162388 -0.185079 0.123662
0.091745 -0.138967 0.280789
-0.311728 0.104661 0.005527
0.030529 -0.404289 -0.029411
0.099329 -0.301927 0.011835
0.116851 -0.235628 -0.145396
-0.094662 -0.463752 0.103850
0.116258 -0.197195 -0.037372
0.383544 -0.084178 -0.096322
0.010515 0.109597 -0.173029
-0.183577 0.124795 0.068707
0.281206 0.196117 0.142365
0.134459 -0.452521 0.126347
0.243341 -0.104646 -0.067272
0.107856 -0.001927 -0.116331
-0.063225 -0.305403 0.176908
0.217958 0.211832 0.165040
0.200771 -0.071883 -0.078101
-0.088717 0.235462 0.049566
0.023544 -0.128328 -0.060150
0.085181 -0.257660 0.230345
-0.395718 0.136256 -0.043812
0.158136 0.077703 -0.265561
-0.155707 0.096065 0.109254
-0.315881 0.109597 0.005527
0.237259 0.041341 -0.094235
0.270492 0.185492 0.084740
0.122347 0.024350 -0.011078
-0.012998 -0.076986 -0.084699
-0.103640 -0.531297 0.113874
0.238375 -0.001408 0.141475
-0.204064 -0.011867 0.034879
0.396420 0.200941 -0.091682
0.381910 -0.130591 0.128522
0.111692 -0.286289 -0.114917
0.292422 0.074093 -0.209185
0.272607 -0.317088 -0.015214
0.248533 0.028194 0.230327
0.149429 -0.141825 0.155896
0.401335 -0.129665 0.040665
0.248500 -0.089623 -0.121450
0.237108 -0.071305 0.173647
-0.062467 -0.345681 0.056387
0.056905 -0.512367 0.253989
-0.028830 -0.128934 0.099512
-0.056169 -0.560173 -0.026901
0.373278 0.229936 0.023764
0.200478 0.043430 0.130466
0.230114 0.304313 0.032287
0.053350 0.070832 -0.163993
-0.070099 -0.063843 -0.081490
-0.003495 -0.468066 -0.072026
0.040067 -0.116425 -0.078918
0.180437 -0.006321 0.267525
0.087112 -0.274100 0.275383
0.286396 -0.158511 -0.157912
-0.202139 0.069147 -0.059122
-0.004761 0.230594 0.034178
0.146778 0.038037 -0.149256
0.232036 -0.317788 -0.076132
0.153184 0.068053 -0.227141
0.422025 -0.090857 -0.036464
-0.302379 0.111047 -0.058020
0.220285 0.232220 0.150313
0.321746 0.113400 0.156251
0.003723 -0.165267 0.053098
-0.032488 -0.359048 0.264004
-0.094498 -0.020701 -0.129157
0.234916 -0.135025 -0.040358
0.300375 -0.197196 0.203999
-0.036367 -0.403098 0.260418
-0.063305 0.272289 0.004680
-0.249493 0.044868 -0.108180
-0.024690 -0.294220 -0.026714
0.179535 0.163407 -0.214964
0.058835 -0.338807 0.276209
-0.224503 0.081650 0.126777
0.381356 -0.125997 -0.084235
0.200153 0.220642 0.165846
0.212667 0.021793 -0.244291
-0.000602 -0.447548 -0.085770
0.337746 0.271647 0.029013
0.019867 -0.172088 0.075018
0.108797 -0.307970 -0.057512
0.252032 0.385390 -0.131567
-0.019399 -0.048185 0.147146
0.028660 -0.541459 0.224834
0.158951 -0.202986 0.076758
0.209821 -0.004988 -0.135022
0.081580 -0.352451 0.111883
0.186611 0.185497 -0.210848
-0.058410 0.308084 -0.108581
0.409725 -0.072419 -0.062479
0.042405 -0.336847 -0.122909
-0.223330 0.072544 0.052236
-0.017755 0.236237 -0.087799
0.427814 0.047327 -0.052496
0.117825 0.130658 -0.120158
-0.047352 -0.002743 0.137267
0.344820 -0.231203 -0.051637
0.310632 0.309787 -0.057425
-0.073838 -0.529165 0.172248
0.366582 0.030582 -0.143973
-0.200016 -0.033559 -0.040534
-0.341836 0.152237 0.012516
-0.126163 0.184714 -0.214759
-0.208046 -0.039445 -0.088670
0.144708 0.065721 -0.234448
-0.217636 0.064107 -0.004171
0.309614 -0.262218 0.004335
0.244633 0.075625 -0.047025
0.230591 0.085120 0.106912
0.255641 0.401444 -0.111389
0.158375 0.011477 0.137812
0.084980 -0.338289 0.145786
0.233208 0.032770 -0.086703
0.334228 0.204122 -0.160364
0.270136 -0.156020 -0.170272
0.431513 -0.004054 -0.037283
0.074197 -0.262960 -0.029758
0.311212 -0.075403 0.204739
0.000502 0.146848 0.093971
-0.282754 0.081274 -0.072390
0.348466 0.073161 0.146618
0.174851 -0.392927 0.146641
-0.149450 0.206007 -0.117147
0.017882 0.214623 -0.161395
0.073156 0.100909 0.017238
0.061186 0.092416 0.008839
0.273344 0.077654 0.203722
0.207280 -0.116782 -0.180437
0.414869 0.188456 -0.012755
0.020742 -0.164826 -0.083282
0.263841 0.306616 0.039676
-0.015852 -0.343297 -0.012075
-0.328767 0.111269 0.000016
-0.016292 -0.392717 0.230939
-0.053048 0.183476 0.094976
0.220194 0.047660 -0.037346
0.121806 -0.139980 0.130550
0.036005 -0.111504 0.156301
-0.071229 0.308175 -0.141669
-0.101596 0.314515 -0.012734
0.179809 0.038309 0.130859
0.043586 -0.547502 0.156738
0.289415 -0.274186 0.056957
0.058581 -0.267952 0.283717
0.089295 -0.175614 0.170650
0.045369 -0.454216 0.265399
-0.103429 -0.482890 0.158374
0.212428 -0.133407 0.070820
0.080703 -0.275191 -0.130244
-0.160364 0.006532 -0.104752
0.023375 -0.416955 -0.040437
0.103428 -0.210603 0.277376
0.323990 0.289607 0.025203
0.443053 -0.075970 0.005226
-0.050751 -0.308683 0.067893
0.019939 -0.304410 0.148937
0.381254 -0.139826 0.099094
-0.076168 0.128732 -0.179539
0.122429 0.096624 -0.023485
-0.169586 -0.020513 -0.095937
0.165986 0.075437 -0.264639
0.312606 0.256380 -0.113304
-0.082317 -0.513669 0.069061
0.076880 -0.516945 -0.000579
0.085465 -0.333657 -0.038485
-0.102597 -0.494600 0.259311
-0.087883 -0.567799 -0.007999
0.012786 -0.293946 0.258084
0.055832 -0.124164 -0.064949
0.390131 0.065348 -0.117582
0.182215 0.229876 0.173529
-0.119906 -0.515233 0.061772
0.303010 0.294806 -0.023768
-0.081814 0.300375 0.087628
0.225855 -0.319867 0.194300
0.015320 0.202036 -0.194037
0.253704 -0.292352 0.160518
0.241456 0.119761 0.124758
-0.034064 -0.351834 0.264712
0.289025 0.283807 0.065471
0.153885 -0.234114 -0.177207
0.038646 -0.257540 -0.000801
0.024073 -0.266336 0.170355
0.228092 -0.047729 0.115415
-0.253358 0.133436 0.002301
0.242205 -0.069915 0.154628
0.071106 -0.448366 -0.056133
0.035027 -0.514460 0.260674
0.271253 -0.110862 0.228989
-0.074144 -0.308571 0.104438
-0.081908 0.023785 0.112410
0.097086 -0.193428 -0.073722
-0.311608 0.131768 -0.090996
0.012084 -0.403316 0.282883
0.126888 0.165496 0.101761
0.162087 0.033646 0.221388
-0.043189 -0.453897 0.141760
0.120726 0.046565 0.025730
0.067729 -0.301732 0.149033
-0.099111 0.221832 -0.004966
0.310234 0.059549 -0.197155
0.397881 0.130932 -0.104739
0.103920 -0.173564 -0.085463
0.099772 0.161513 0.039920
0.269918 -0.103738 0.230033
0.061878 -0.313833 0.278270
0.234752 0.331560 -0.156260
-0.334104 0.211111 -0.069347
0.189126 0.076489 0.202112
0.028625 -0.489610 -0.044105
0.221806 -0.001330 -0.203028
0.251702 0.299000 -0.139676
0.197432 -0.081916 0.262258
-0.057859 -0.136300 0.006988
0.059183 -0.552832 0.156106
0.178964 0.059645 -0.146404
0.299232 0.232537 -0.013593
0.006609 -0.098055 -0.070089
-0.105659 0.077050 -0.167359
0.126070 -0.207403 0.178078
0.014315 -0.539785 0.218309
-0.073298 0.269644 0.042244
0.378515 0.076455 0.111212
-0.198679 -0.011182 0.053392
0.375657 -0.154003 0.075447
-0.347328 0.193671 -0.068705
0.119810 0.112132 -0.159488
0.305918 -0.265060 0.011665
-0.062396 -0.473698 -0.050404
-0.211226 0.041228 -0.114770
0.253991 -0.030494 0.236728
0.357401 0.309651 -0.050686
0.174461 -0.143695 0.212697
-0.231812 0.027346 -0.067069
0.056954 -0.536126 0.225362
-0.357253 0.194118 -0.020577
-0.007556 0.250771 -0.111906
-0.047422 -0.133846 0.023041
-0.118719 0.136573 0.107416
0.151499 -0.215583 0.067370
0.245248 -0.073062 0.129279
0.379435 -0.069294 -0.106275
-0.068164 0.305375 -0.144827
0.078169 -0.156972 0.280429
-0.028659 0.254565 0.040143
-0.224806 0.052702 -0.010684
0.049013 -0.140663 0.118789
0.194270 0.243330 0.108698
0.126295 -0.181316 -0.042540
0.094172 -0.504382 -0.001453
0.369248 -0.194746 -0.037900
0.173873 -0.236703 -0.111916
0.305885 0.223239 -0.152784
-0.179701 0.133435 0.067106
0.246628 0.185474 0.168682
0.228978 0.031333 -0.203312
0.270716 -0.263188 0.183375
-0.187996 0.070629 -0.120246
0.019279 -0.377872 0.002134
-0.139475 0.106915 -0.186758
0.206949 -0.011265 0.097036
0.309448 -0.033295 0.202928
0.051563 -0.557350 0.175947
0.440958 0.038931 -0.020887
-0.175230 0.153332 0.114068
-0.077842 -0.324066 0.067243
0.260217 0.011792 -0.224116
0.194376 -0.188607 -0.038798
-0.279479 0.129405 -0.083189
-0.318364 0.128391 0.008591
-0.167693 -0.001607 0.015068
0.091572 0.144296 0.073127
-0.072670 -0.102190 -0.029553
-0.010777 -0.385101 0.008168
0.244749 0.043672 -0.152180
0.019604 -0.268249 0.170988
-0.100155 -0.549106 0.049558
0.105290 0.053113 -0.006727
-0.170604 -0.028803 0.094096
0.363391 0.264215 -0.108437
-0.215398 0.085368 -0.004702
-0.093747 0.319713 -0.039176
0.043986 -0.150369 0.064484
0.151433 -0.203514 0.110163
-0.355540 0.123079 -0.091855
-0.172412 0.202430 0.000450
0.041612 -0.581382 0.081640
-0.174687 -0.053310 -0.037445
0.398649 0.058745 0.089576
-0.259239 0.007231 0.034095
-0.009755 0.264041 -0.066407
0.236532 0.058835 0.227915
0.181470 -0.144245 0.262716
0.214850 -0.120574 0.104627
0.253625 0.053074 -0.229928
0.146461 -0.351929 0.242467
0.249640 -0.303361 0.140834
-0.284497 0.056524 -0.037895
-0.193752 0.035654 0.084990
0.247166 -0.085974 -0.125601
0.132161 0.163104 0.099315
-0.100074 -0.069167 -0.114893
0.179210 0.036337 0.260580
0.041584 0.182495 0.064026
-0.046787 0.185706 0.060728
0.186255 0.048830 0.211726
0.122568 0.173067 0.070264
-0.199526 0.086562 -0.010081
0.243852 0.182965 -0.222535
0.239337 0.343682 -0.025480
-0.304133 0.139369 -0.064076
0.321178 -0.048976 0.195751
-0.011390 -0.224745 0.162013
0.150709 0.121204 -0.004404
0.000130 -0.315089 -0.019680
-0.071429 0.296616 -0.188252
0.183464 -0.348319 0.227989
-0.090480 -0.507437 -0.039843
0.010972 -0.112818 0.155806
-0.015481 0.229024 -0.202249
0.232219 0.031876 -0.080957
0.217858 0.148646 0.200561
-0.109394 0.081036 0.104036
0.382552 0.238503 0.000126
-0.022216 0.218924 -0.127814
0.049836 0.132270 0.113361
0.129138 0.019410 -0.052423
0.134145 0.089105 0.031431
0.432954 0.074391 0.019573
0.178390 0.140744 -0.217279
-0.047997 0.324146 -0.017402
0.367246 0.277028 -0.019822
0.143760 -0.428702 0.196299
0.310314 -0.233247 0.073281
0.444485 -0.038969 0.001404
0.025800 -0.372067 0.282343
-0.174249 0.044872 0.084878
0.069603 -0.379968 0.071207
0.042273 -0.391492 0.034338
0.326936 0.313781 0.001104
-0.142183 0.179396 -0.212744
0.202934 -0.031131 0.001016
0.082882 -0.389955 0.260889
0.406556 -0.054778 0.109305
0.139979 -0.134609 0.156710
0.051858 0.214860 0.091904
0.114899 -0.290374 0.063426
-0.175946 0.099457 -0.075298
-0.067312 -0.429401 0.267200
0.098419 0.119429 0.078277
0.170147 -0.326997 0.237032
-0.125251 0.185057 -0.011797
0.064128 0.074475 -0.030151
0.347008 0.317851 -0.045763
0.299302 0.258537 0.022916
-0.152670 0.124218 -0.097325
0.355160 -0.177358 0.089385
-0.097595 -0.517163 -0.042416
0.283533 0.277098 0.043795
-0.008193 -0.411020 0.128523
0.235459 -0.002392 -0.233618
0.262245 -0.331365 -0.045838
0.280045 0.288975 -0.125179
0.318946 0.047647 0.180990
0.087576 -0.324205 -0.015116
0.306445 -0.231475 0.127411
-0.063108 -0.493675 0.095178
0.184159 -0.144900 -0.220188
-0.053375 -0.483605 0.084969
-0.210310 0.053044 0.082165
0.375496 -0.115086 -0.095370
0.363065 0.310291 -0.076580
0.317338 -0.015993 0.194909
-0.225415 -0.026051 -0.085824
-0.122233 -0.538674 0.066063
0.185773 -0.412314 0.056916
0.201908 -0.362629 0.126366
0.207940 0.145936 -0.207109
0.090516 -0.239041 -0.058825
0.312231 0.205161 0.113021
-0.027056 -0.332453 0.048839
-0.030180 0.253133 0.028493
0.250111 0.236253 0.133069
0.172427 -0.196381 -0.154830
0.248562 0.188675 -0.181272
0.365039 -0.147061 -0.094143
0.006760 0.170626 0.104437
0.414632 0.191775 -0.065370
0.036617 -0.391243 -0.068764
0.370004 -0.173925 -0.076853
0.204030 0.002537 0.217278
0.030584 -0.213825 -0.060216
0.327158 0.024545 -0.181781
0.123346 -0.137610 0.243451
0.097648 -0.105153 0.144098
-0.082787 0.339916 -0.026900
0.210047 -0.339983 0.197648
-0.108402 -0.526401 -0.022262
0.255664 0.404549 -0.101393
0.070335 0.068631 -0.030180
0.217121 0.083321 -0.209035
0.085558 -0.289126 -0.120826
0.313443 0.256892 -0.127232
-0.084999 -0.554214 0.059282
-0.025086 -0.143781 0.051362
-0.072717 0.249119 -0.032723
0.075607 0.117930 0.116988
-0.315051 0.148546 0.007484
-0.198394 0.172157 0.042827
0.258221 0.120888 0.195619
-0.041701 0.276265 -0.122437
0.114524 0.180658 0.070374
0.303251 -0.034829 -0.190631
-0.006738 -0.368356 -0.003237
-0.209435 0.086047 -0.009649
-0.149146 0.055834 -0.155902
0.266181 -0.285108 0.127490
0.308059 -0.243896 0.046373
0.030732 -0.065801 0.113055
0.165964 0.235577 0.171921
0.197615 0.038690 0.211224
0.210222 -0.202258 0.243061
0.173374 0.018245 -0.254511
0.207365 -0.133717 -0.211778
-0.078877 -0.537919 -0.055828
-0.156359 0.077483 0.112931
0.124927 -0.199143 -0.187541
0.064560 -0.226652 0.160033
-0.124655 -0.495004 0.153861
-0.009527 -0.500556 0.131454
0.231078 0.323434 0.074956
-0.065352 -0.042428 -0.103793
0.156887 -0.219438 0.028532
0.073754 -0.373652 0.266512
-0.067739 -0.400960 0.303881
-0.018250 -0.338847 0.051580
0.051112 -0.436041 -0.074123
-0.000682 -0.488017 -0.057144
0.063741 -0.261545 0.167239
0.124010 -0.214634 0.199652
0.134393 -0.225461 0.039201
-0.036809 -0.577893 0.013564
-0.083850 0.124990 -0.143261
-0.032642 0.252477 0.081876
0.118780 -0.212066 -0.187084
-0.052292 0.283369 -0.191101
0.066547 -0.300130 -0.141560
0.387680 0.059948 -0.120606
0.034818 -0.061029 0.127659
0.295834 0.291222 -0.161895
-0.169877 0.216277 0.034048
0.274780 0.192477 0.069929
0.298460 0.193578 -0.133825
0.070074 0.100248 0.081231
0.134809 0.126804 -0.042484
0.440628 0.097473 -0.020657
-0.128338 -0.059987 0.098010
-0.010367 -0.124728 0.156044
0.034582 -0.350641 -0.096053
0.038642 0.121753 -0.176929
0.061007 -0.194713 0.153667
0.027083 -0.555356 0.004335
0.165362 -0.315929 0.240854
0.135266 0.027630 0.051697
0.292251 0.337239 -0.135174
-0.106636 0.014674 0.092914
0.256867 0.079393 -0.141871
-0.094812 0.298104 -0.107876
-0.158387 0.156377 0.063188
-0.042377 0.155496 -0.153118
0.157167 0.001067 0.231705
-0.069508 -0.138430 -0.062819
-0.230763 0.112280 0.018929
0.212251 -0.039124 0.133684
-0.033244 0.248843 -0.000628
-0.212537 0.009491 -0.077364
-0.252074 -0.019091 -0.052078
0.022748 0.091031 -0.172195
0.270340 0.303178 -0.168429
0.192535 -0.044233 0.262367
-0.155447 0.197414 -0.112926
0.362993 0.070998 -0.150855
0.069346 -0.329449 0.156318
0.373477 -0.053674 -0.118292
0.377592 -0.175286 -0.008538
0.214908 0.031895 0.133195
0.226119 -0.378142 -0.012051
-0.000296 -0.236260 0.165214
0.188310 0.030965 0.254158
0.245808 0.376102 -0.100108
0.231226 -0.166032 -0.132186
-0.204653 0.178697 0.101030
0.179860 -0.430790 -0.013038
-0.149377 0.130659 -0.090098
-0.144826 0.226126 -0.073744
-0.166490 0.199971 -0.041592
-0.080670 -0.305368 0.146320
-0.062489 0.240201 -0.233210
0.102189 -0.529685 0.035854
0.062563 0.091856 -0.167087
0.177417 -0.005256 0.143105
0.124511 -0.463877 0.158480
-0.095688 -0.465986 0.147811
0.212864 -0.048983 -0.033578
0.184381 -0.208671 -0.062534
0.025176 0.183447 -0.138080
0.138766 -0.267746 -0.160080
0.233081 0.042229 -0.054747
0.085197 0.056063 -0.120256
-0.108138 0.068318 0.117596
0.284563 0.063509 0.201347
0.014602 -0.398020 0.067360
0.248674 0.215346 -0.212535
0.111261 -0.320006 0.086861
-0.135823 0.234151 0.098961
0.071250 -0.346784 0.271132
0.334298 -0.073391 -0.153986
0.020973 -0.370689 0.283912
0.167791 -0.231453 -0.133105
0.367777 -0.170248 0.025484
0.026991 -0.309858 -0.018956
-0.050848 -0.449088 0.194615
-0.010623 -0.580750 0.035284
0.219034 0.067721 0.126191
0.373712 0.203530 -0.120618
-0.073069 -0.117157 -0.010919
0.267616 0.346470 0.009935
0.131151 0.109824 -0.125457
0.176082 -0.414459 0.081987
-0.217194 0.028698 -0.112155
-0.061842 -0.451980 0.236004
0.272169 0.251235 -0.183199
-0.132797 0.224718 -0.146685
0.145777 -0.449991 0.111905
-0.135619 0.246638 -0.054913
0.291914 0.229555 0.040820
0.261317 0.225269 0.087913
0.154818 0.216972 0.170183
-0.095859 -0.017152 0.133564
-0.245978 0.062120 -0.007779
-0.191631 0.153070 -0.061503
0.392413 0.245033 -0.080078
-0.035572 0.136999 -0.147047
-0.365126 0.154236 -0.106042
0.217822 0.225561 -0.185852
0.011131 0.104753 -0.136382
0.353576 -0.182646 0.048458
-0.017885 -0.493032 -0.059906
0.319446 -0.234512 -0.087418
0.322242 0.318134 -0.009578
0.099503 -0.163405 -0.081082
-0.109114 0.167101 0.096536
-0.018867 0.154170 0.095019
0.411716 0.036773 0.076259
0.181078 0.049936 -0.254723
-0.085635 0.316038 -0.097793
0.036497 -0.302606 0.010965
0.314220 -0.258502 -0.004191
0.081932 0.205087 0.044906
0.276377 0.129119 -0.150592
-0.002262 -0.515520 -0.038076
0.007702 -0.143635 -0.019309
0.192154 -0.002995 -0.135722
0.405631 -0.003570 -0.085629
0.114285 -0.321060 0.068965
0.057229 0.128869 0.114260
-0.074595 -0.036116 0.103979
0.150009 0.058539 -0.266888
0.303348 0.043675 0.193987
0.017324 0.245193 0.026541
0.252702 -0.134230 -0.148171
-0.057547 -0.130894 0.029661
-0.006657 -0.342391 0.020663
0.233300 0.194291 -0.187394
0.170111 -0.034005 0.232597
0.232709 0.024584 -0.109027
-0.218143 0.093016 -0.012216
0.241014 0.224304 -0.213618
0.117806 -0.208871 -0.169405
0.069579 -0.082875 0.151310
-0.266932 -0.010226 -0.151105
0.422634 0.022615 -0.060007
-0.020998 0.218836 -0.133840
0.293258 0.328341 0.000397
-0.043085 0.210334 0.089933
0.370983 -0.109232 0.159039
0.279350 0.150448 -0.107098
0.175815 -0.110412 0.267654
0.383248 -0.007010 -0.117381
0.302828 0.042038 -0.201608
-0.323311 0.085894 -0.053770
-0.010120 0.157994 0.067334
0.241263 0.281302 0.100620
-0.129841 -0.467342 0.274004
-0.258142 0.118502 -0.014848
0.139298 -0.199602 0.176927
0.077806 -0.230008 0.160009
-0.035014 0.311875 0.059596
0.116053 -0.181435 -0.082856
-0.082226 -0.123320 -0.016580
0.408810 0.107957 -0.089696
-0.094872 -0.020942 0.100352
0.077396 -0.147889 -0.086305
-0.215835 0.062946 -0.016705
0.425990 -0.055255 -0.038063
0.244431 0.018270 -0.232048
-0.049021 -0.094400 0.011873
0.345332 0.158863 -0.161181
-0.116780 -0.502908 0.091993
0.384459 0.221907 -0.100894
0.275151 -0.207307 0.213902
0.289698 -0.301984 -0.042218
0.119872 -0.298220 0.123156
0.336023 0.272294 -0.139937
0.242307 0.347956 -0.162786
-0.059937 -0.442608 0.257403
0.161846 0.195155 0.199355
-0.148638 0.167910 0.037553
-0.266142 0.087679 -0.052443
-0.276990 -0.009382 -0.140165
0.344605 -0.097617 0.180848
0.414492 0.063984 0.061539
0.167264 0.012600 0.057430
0.027432 -0.401199 -0.004010
0.086279 0.159229 0.050150
-0.037858 -0.541601 -0.033376
-0.116545 -0.021263 0.092352
-0.222883 0.027443 -0.036922
0.243827 -0.115439 0.242355
0.410499 0.167075 0.013685
0.037577 0.150180 0.070330
-0.089528 -0.461720 0.263476
0.064014 0.207794 0.093676
-0.055344 -0.516856 0.243114
0.376699 0.119418 0.095616
0.156478 0.154237 0.176618
0.435524 0.050390 -0.035623
-0.111257 -0.480149 0.140441
0.112885 -0.298389 -0.042968
-0.284687 0.104521 -0.082497
0.210164 -0.138446 0.063707
0.396582 0.021053 -0.103798
-0.192795 0.107417 0.031753
0.006406 -0.128171 0.158719
-0.256143 0.109612 -0.052161
0.007067 -0.362578 0.037927
0.056300 -0.354683 0.024932
-0.096487 -0.536283 0.105426
-0.002629 -0.222171 0.127024
-0.156934 -0.010724 -0.099101
-0.112252 -0.546567 0.065620
0.077273 0.082033 0.111128
0.179855 -0.040402 0.230842
0.062510 -0.132457 -0.074479
-0.091568 -0.108455 -0.102028
0.249222 0.384698 -0.109711
0.127486 0.043522 0.039212
-0.188753 0.047040 0.084009
0.105897 -0.212645 0.172993
0.303095 -0.159334 -0.144961
0.234957 0.267480 0.116152
0.076835 -0.285631 -0.022262
-0.321781 0.168240 -0.060113
0.313990 -0.219091 -0.101832
0.243445 0.192809 0.122745
-0.345246 0.211144 -0.016274
0.078120 -0.282367 -0.126607
0.445450 0.033135 -0.004418
-0.173806 0.222900 0.079173
0.049206 -0.378061 -0.024702
-0.274991 -0.001390 -0.123851
0.345614 0.027030 0.162479
0.264932 -0.208398 0.218339
0.359458 0.030361 0.147656
0.055911 0.147762 0.105357
0.035527 0.128622 0.113653
-0.004627 -0.417452 0.089161
0.041966 0.103870 -0.171072
0.161924 -0.019427 0.272363
-0.039332 -0.471822 0.060578
0.093490 0.144218 0.008514
0.124632 0.153417 -0.001652
-0.132290 0.146833 -0.113316
0.173068 -0.157350 0.168180
-0.042822 0.325568 0.027710
-0.127538 0.226791 -0.169232
-0.050034 -0.358900 0.039226
0.380119 0.088757 -0.131169
-0.264558 0.012204 -0.135843
-0.191135 0.147738 -0.082692
0.386467 -0.115376 -0.081851
-0.383516 0.117187 -0.038971
0.237565 0.116037 0.146662
-0.142168 0.087469 -0.166464
0.178949 -0.288226 0.240141
0.061422 0.153302 0.070428
0.011389 -0.181315 0.012102
0.001239 -0.435965 -0.050148
0.157887 -0.180637 -0.167703
0.092052 -0.339614 0.107944
0.207370 -0.020540 -0.129944
0.255951 0.248216 0.120535
0.010154 0.195146 -0.141394
0.260756 0.315988 -0.175734
0.188103 -0.075648 -0.243615
-0.043315 -0.572782 -0.006910
0.042828 0.153184 0.069891
0.183522 -0.044923 -0.208515
0.120815 0.045801 0.070218
0.237558 0.037899 -0.108080
0.443806 -0.075304 0.032791
0.195707 -0.116214 -0.225022
0.156308 -0.126873 0.236824
-0.061392 -0.137355 -0.008026
0.209548 -0.191004 -0.118401
0.023200 -0.245499 0.133564
-0.198275 0.067668 -0.082449
-0.065185 -0.078344 0.065127
-0.136004 0.208937 -0.183065
0.164540 -0.021415 -0.035585
0.097911 -0.266738 0.103625
0.038561 -0.374486 -0.122632
-0.033470 -0.237593 0.163475
0.160311 -0.359958 0.235613
0.050192 0.149003 -0.128643
-0.028171 -0.058749 0.143876
0.199855 -0.094111 0.225646
0.211569 -0.190549 -0.126279
0.395059 0.039492 -0.108454
0.116172 0.143902 -0.072688
-0.124633 -0.477163 0.105685
-0.147601 0.264864 0.075988
-0.336439 0.207064 -0.072642
0.238160 0.268452 -0.207314
-0.189176 0.022494 -0.110049
0.207397 -0.373079 -0.044129
0.139668 -0.410890 -0.051291
0.268014 0.166275 0.043786
0.231799 -0.038352 -0.146248
0.189943 -0.413866 0.031893
-0.045756 -0.294871 0.139634
0.276968 0.242990 0.060943
-0.018507 -0.564305 0.091689
-0.118902 0.002800 0.094908
-0.014871 0.087001 -0.161143
0.160838 0.102004 0.199265
-0.198759 0.161548 0.008197
0.005193 -0.080542 0.149215
0.329794 -0.202975 0.118198
-0.189108 0.087477 0.075956
-0.128167 0.178621 -0.212811
0.048382 0.138689 -0.182441
-0.242092 0.073774 -0.049047
0.207451 -0.195668 -0.182579
-0.036969 -0.099155 -0.069856
0.231225 -0.080685 -0.075141
-0.192009 0.098821 -0.002193
-0.226321 0.000276 0.016070
-0.074476 -0.337165 0.005348
0.129536 0.033087 0.051957
0.399590 0.139365 0.051443
-0.125387 -0.014292 -0.097844
0.079839 0.083834 0.047558
0.037022 0.190279 -0.139671
-0.068253 -0.335043 -0.016373
0.408074 0.184264 0.004943
-0.229204 0.128209 0.065223
0.060113 -0.182102 -0.077526
0.207238 -0.025049 0.149379
-0.076259 -0.079648 -0.111399
-0.185691 0.092192 0.109143
-0.318734 0.110405 -0.045778
-0.016581 -0.079724 0.114396
0.112034 -0.211119 0.239355
-0.083259 0.301177 -0.162627
0.080694 -0.281698 0.276403
-0.017336 0.233570 -0.190853
-0.209815 -0.043108 -0.121530
0.133680 0.118618 -0.080058
0.299779 0.223243 -0.048685
0.187158 0.283042 0.102342
-0.006198 -0.426995 -0.058894
0.193463 -0.147081 0.111646
0.075897 -0.409724 -0.083179
0.280809 0.141952 -0.147577
-0.380478 0.120870 -0.023376
0.175685 -0.164642 -0.209193
0.405006 0.052130 0.082007
