0.286695 0.391420 -0.342691
0.092414 0.491008 -0.031173
0.500723 0.257947 0.159638
0.460934 0.149903 0.290129
0.176360 0.364222 0.295685
-0.457119 -0.135240 -0.280137
0.080615 -0.195429 0.042853
-0.107880 0.209213 0.147927
0.236152 0.387020 -0.263025
0.410594 -0.027811 0.196832
-0.050728 -0.256464 -0.307272
0.452125 0.173715 0.252335
-0.043145 -0.182525 -0.524690
-0.225733 -0.128196 -0.402988
0.429235 0.279623 0.296790
0.125180 -0.102934 -0.175354
0.338435 0.271388 0.403249
0.312771 0.305357 -0.290735
-0.010378 0.158055 -0.464273
0.381533 -0.084741 0.169356
-0.578685 -0.168044 -0.252852
-0.056314 0.043258 -0.484978
0.101592 -0.074285 0.311765
0.245936 0.212260 -0.308354
0.226615 -0.155979 -0.036759
-0.466349 -0.131911 -0.190734
-0.148831 0.071852 -0.358576
0.204244 0.029090 -0.356794
0.213145 0.395203 0.130359
-0.016726 0.313094 -0.117130
0.132319 -0.108424 -0.392449
0.094684 0.378885 0.251906
0.087351 -0.143424 0.241755
-0.036106 -0.099202 -0.016005
-0.205199 -0.326549 -0.151825
-0.110224 0.153668 -0.395178
-0.216668 -0.043271 -0.342112
-0.007465 -0.147779 0.081365
0.066815 0.353638 -0.060177
-0.002725 -0.141271 0.149631
0.141707 -0.203306 0.022688
-0.133813 0.094962 -0.080965
0.384283 0.331724 -0.126958
-0.100590 0.032482 0.042726
-0.544503 -0.190353 -0.239000
0.023945 0.341027 -0.228976
0.435379 0.189456 0.399290
0.490303 0.265482 -0.110361
0.328309 0.305110 -0.297803
0.433213 0.028357 0.197988
0.153120 -0.131361 -0.455391
0.198118 -0.089132 0.312238
0.494450 0.196156 0.003852
0.047090 0.375939 0.201256
-0.007487 -0.109300 -0.069677
-0.561469 -0.100355 -0.180098
0.015893 0.325037 0.219135
-0.112830 0.108969 -0.399568
-0.021977 -0.266956 -0.384456
0.388271 0.279200 0.361797
0.230795 0.187861 0.369744
0.365997 0.358817 -0.345153
0.243465 0.387315 0.263162
-0.465497 -0.095756 -0.192499
0.074848 0.513636 0.001457
-0.180346 -0.297590 -0.183669
0.214801 0.398706 0.093252
0.132057 0.478440 -0.314535
0.000801 0.320684 0.212951
0.373519 0.370476 -0.175393
0.099625 0.135719 0.355832
-0.532245 -0.152917 -0.258603
-0.080349 -0.030297 0.026703
0.238356 0.235361 -0.289345
0.271790 0.303076 -0.261599
0.487529 0.086089 0.045229
0.018851 0.321266 -0.321128
0.239951 -0.002432 -0.225216
0.270061 -0.170161 0.150954
0.475585 0.176997 0.298615
0.177500 0.436537 0.248426
0.388086 0.328658 -0.279861
-0.085292 0.030633 0.118018
0.346402 0.117194 0.449317
0.423950 0.009693 -0.081561
0.012900 0.333621 -0.199343
0.130358 -0.054443 -0.301547
-0.146898 0.069319 -0.136747
0.269004 -0.106670 -0.060720
0.416321 -0.051147 0.118253
0.102618 0.114975 0.363851
0.040500 -0.224373 -0.478476
0.025749 0.006457 -0.489045
-0.148682 0.173147 -0.169570
-0.474447 -0.142735 -0.191241
-0.113015 0.063227 -0.446166
-0.142011 0.115216 -0.349100
0.236810 -0.195295 0.134255
0.286057 0.100203 -0.224354
-0.148347 -0.245474 -0.121501
0.118019 0.493205 -0.084931
-0.103070 -0.125332 -0.506359
0.441054 0.287372 0.089881
0.198422 0.420252 -0.031887
-0.221450 -0.221439 -0.227203
0.354455 0.381653 -0.201431
-0.073599 0.294028 -0.301631
0.150600 0.210596 -0.419921
-0.033825 -0.132844 -0.528018
0.062527 -0.043858 0.311316
0.208148 0.197632 -0.383086
-0.015843 -0.106818 -0.058602
-0.259096 -0.155164 -0.270697
0.022628 0.304695 0.244608
0.093403 -0.089901 -0.240293
-0.154677 -0.204137 -0.136659
0.376671 -0.016840 -0.134893
0.063037 0.477849 -0.105150
-0.222349 -0.062163 -0.367345
0.220010 0.404742 0.022911
-0.280926 -0.386509 -0.047642
-0.213798 -0.197299 -0.213245
0.111735 0.127965 -0.459509
-0.149664 0.158438 -0.299852
0.015239 -0.039371 0.267335
-0.110075 0.137758 -0.017740
0.169923 0.475963 -0.143050
-0.293683 -0.345184 0.027588
-0.072369 0.343274 0.094456
0.110002 -0.208873 0.106057
0.111805 -0.033160 -0.383291
0.407064 0.333680 -0.207685
-0.195400 -0.045069 -0.423046
-0.110256 0.211741 -0.116432
0.151882 -0.064994 -0.251922
0.143292 -0.138845 -0.469123
-0.215818 -0.076072 -0.291419
0.201187 0.047501 -0.381675
0.254975 0.189777 0.392297
0.430518 -0.033378 0.102395
0.073681 -0.208536 -0.445584
-0.209947 -0.190096 -0.318013
0.087814 0.508579 -0.152942
-0.170687 0.017428 -0.434115
-0.142168 0.186193 -0.230097
0.296812 0.292215 -0.261132
0.242165 0.070118 -0.328393
-0.103421 0.170489 -0.021455
-0.182828 -0.053871 -0.253165
-0.201878 -0.037031 -0.404715
0.000651 0.339631 0.194734
-0.105251 0.228443 0.148798
0.134431 0.501995 -0.233191
0.261630 0.283161 0.366060
0.056864 0.226129 0.313120
0.086352 0.273958 -0.395384
-0.198101 -0.188255 -0.417782
0.027272 0.436070 0.012546
-0.162885 0.046533 -0.192863
-0.048091 -0.038076 0.184111
0.082873 0.204841 -0.444384
-0.207567 -0.189250 -0.215128
-0.004680 0.308144 -0.086329
0.286093 0.409769 -0.170253
0.101433 -0.031808 0.334613
0.309586 0.163179 -0.219225
0.364080 0.329556 -0.330234
0.169519 0.382014 0.291857
0.223156 -0.133359 0.268433
0.386258 0.371341 -0.285796
0.250816 0.217325 0.385816
-0.046759 0.279103 -0.362979
-0.059590 -0.219501 -0.282606
-0.140854 0.068945 -0.402047
0.285526 0.321506 -0.289939
-0.004942 0.383249 0.023177
-0.139505 -0.125582 -0.505003
0.404096 0.308607 0.018210
-0.046570 -0.123467 -0.217449
-0.576812 -0.162110 -0.156852
0.299560 0.418665 -0.309247
-0.470197 -0.099346 -0.190055
-0.074315 0.208824 0.197349
-0.128886 -0.028077 -0.493052
0.452491 0.002682 0.035529
0.384996 0.043755 -0.154448
0.468104 0.217858 0.295879
0.392516 0.322152 -0.081275
-0.002216 -0.249718 -0.442390
-0.066650 0.290443 -0.158469
-0.043779 -0.092054 -0.525332
0.295899 0.382823 0.171628
-0.108107 0.232371 -0.139457
-0.315428 -0.126596 -0.239541
-0.120675 0.004690 -0.489742
-0.062881 -0.073769 0.039762
-0.099643 0.209839 0.164318
0.480411 0.085811 -0.013327
0.035406 -0.176063 0.128579
-0.152107 -0.114875 -0.488122
-0.091359 0.222852 -0.026784
0.382745 0.343762 0.125566
0.212882 0.223822 -0.354990
0.187732 0.366143 0.293449
0.086429 0.337513 -0.265279
-0.106985 0.236304 -0.009252
0.127936 0.238773 0.340474
0.032151 0.343277 -0.098446
-0.038687 -0.093532 -0.027088
-0.039174 0.155759 0.248954
-0.189391 0.017954 -0.324207
-0.135234 0.174756 -0.336925
0.031158 0.010196 -0.475315
-0.404800 -0.075887 -0.221134
0.181873 0.305641 -0.254700
-0.004780 0.295295 0.217318
-0.151012 -0.151355 -0.218946
0.156372 0.111216 -0.444445
-0.128297 -0.193925 -0.189298
0.227882 -0.040174 -0.196058
0.062598 -0.098004 -0.234288
0.204721 -0.141049 0.262876
-0.063949 -0.075269 0.049690
0.210465 -0.098456 -0.133700
0.143851 0.156846 -0.449087
0.213034 0.398458 0.190999
0.386824 -0.081225 0.160802
0.377382 0.042315 -0.161796
0.465805 0.212564 0.219685
0.497624 0.253684 0.028004
0.080557 -0.117704 -0.290389
0.155658 0.126753 0.366752
0.369199 0.380835 -0.298617
0.081555 0.052266 -0.453628
0.361829 0.198808 0.443343
-0.471752 -0.168183 -0.307732
0.144863 0.140415 0.360696
0.348743 -0.090424 -0.031367
0.052360 0.391411 0.200563
0.016981 0.493788 0.010171
0.503933 0.271110 0.012125
0.234894 0.190252 -0.346485
0.049532 0.526300 0.004434
-0.142323 -0.109309 -0.493233
-0.136804 -0.243702 -0.185562
0.404693 0.046130 0.271009
-0.194142 0.016585 -0.350924
-0.189222 -0.286627 -0.150662
-0.004082 -0.148839 0.120271
-0.309306 -0.393099 -0.015651
-0.025713 0.365196 0.134295
0.061793 0.050584 -0.458617
0.337112 -0.067369 -0.093722
-0.508061 -0.134618 -0.177171
0.315429 0.405493 -0.251639
0.195840 0.217134 -0.381980
-0.089987 0.092528 -0.425473
0.112022 0.332890 -0.260648
-0.063563 -0.264405 -0.329520
-0.031484 -0.152615 -0.532361
-0.191246 -0.136183 -0.264691
-0.204049 -0.253529 -0.250963
0.102993 0.013417 -0.433811
0.157183 -0.144139 0.260019
0.298689 0.184885 -0.244041
-0.024170 -0.100084 -0.132882
0.360299 0.196303 -0.128915
0.048070 0.126948 0.323067
0.463431 0.233991 -0.095967
-0.306835 -0.387754 0.003079
0.070969 -0.114311 -0.138158
-0.177340 -0.206316 -0.115068
0.328383 0.071803 0.406970
0.100791 0.466424 -0.015307
0.259844 0.051095 -0.236372
0.410355 0.310836 0.265072
-0.504168 -0.136800 -0.251535
-0.133583 -0.234054 -0.411274
-0.226446 -0.331370 -0.102569
0.179131 -0.001366 -0.351662
-0.059981 0.280318 -0.349519
0.313364 0.407342 -0.211457
0.460889 0.016207 0.051404
0.407131 0.312059 0.272020
-0.029046 0.299118 -0.129046
-0.013842 0.202447 0.260030
0.050208 -0.173220 -0.369515
-0.042942 0.075531 0.178286
0.053579 0.375666 -0.022567
0.203253 0.459414 -0.182469
-0.157749 -0.267846 -0.200786
0.220724 0.398730 0.070004
0.049235 -0.116876 -0.139577
0.054645 -0.000624 -0.506117
0.265712 0.336700 0.298715
0.395258 0.056007 0.287789
-0.318707 -0.075873 -0.285527
-0.129261 -0.013148 -0.113428
-0.033556 -0.120195 0.054763
0.343178 0.308771 -0.306833
0.054814 0.000535 -0.501138
0.363180 0.348911 0.146904
0.419104 -0.042287 0.087800
-0.393539 -0.062300 -0.241463
-0.096474 -0.067776 -0.157644
0.287379 0.341841 0.303998
0.491841 0.300085 -0.075109
0.325791 -0.135776 0.118154
-0.081349 0.118302 0.153628
-0.429952 -0.093142 -0.263295
0.474277 0.137758 -0.034375
-0.599295 -0.160259 -0.189458
0.367866 -0.002506 0.284231
0.263237 -0.070942 -0.110085
0.036092 -0.067920 0.273991
-0.162864 -0.211123 -0.435929
-0.285469 -0.348416 0.002270
-0.199325 0.001409 -0.370999
-0.243795 -0.304667 0.003217
0.172431 0.318160 -0.230714
0.305015 0.130924 -0.188338
0.088285 0.402654 -0.206918
0.227236 0.403824 -0.002320
0.080878 0.471215 -0.148224
-0.060848 0.096354 0.157535
0.128645 0.012922 -0.411317
0.029275 0.518789 -0.070532
0.242275 -0.162225 0.227236
0.432507 0.258765 0.328882
-0.610347 -0.169743 -0.171618
-0.007109 -0.107899 -0.536458
0.166892 0.187045 -0.421804
0.166102 -0.135723 -0.109022
-0.115447 0.180152 0.011853
0.113511 -0.092210 -0.358715
0.486471 0.155311 -0.032026
-0.021853 -0.118469 -0.004297
-0.181407 -0.009525 -0.269798
0.175116 0.408024 0.274205
-0.083753 -0.100219 -0.203525
0.474161 0.181702 0.192741
0.023374 0.378841 0.177858
-0.102895 0.176946 -0.007285
-0.223761 -0.215352 -0.114359
0.447301 0.090917 -0.073123
0.356492 -0.039278 -0.131892
0.086717 0.512630 -0.223638
0.014553 -0.206296 -0.351310
-0.042439 -0.107793 0.041432
0.370861 0.310988 -0.264180
0.183277 0.333345 0.321902
0.071140 0.334357 -0.296885
0.286481 0.099145 -0.219759
0.189876 -0.210014 0.081467
0.441350 0.161648 0.398818
-0.344720 -0.127836 -0.323228
-0.134684 0.098366 -0.085588
-0.076018 0.299032 -0.289743
-0.113294 0.161416 0.133373
-0.141114 -0.245443 -0.214265
0.066037 -0.152616 -0.065254
-0.086623 -0.073982 -0.151256
-0.069419 -0.075888 -0.123255
0.044763 0.260619 0.293090
0.130147 0.449449 0.007148
0.276729 0.429333 -0.273816
0.171836 0.465512 -0.104751
-0.182318 -0.052281 -0.450954
-0.275286 -0.336285 -0.002538
0.296378 0.244551 0.424942
0.137089 0.028846 -0.420334
0.016112 0.005665 0.282903
0.335403 0.400006 -0.313216
-0.081528 0.099224 0.100343
-0.088182 -0.128540 -0.507920
-0.054221 -0.072851 -0.052057
-0.254166 -0.130082 -0.368037
0.444809 0.058498 0.178732
-0.186979 -0.195937 -0.424539
0.128688 0.365155 0.280870
0.107216 0.011659 0.349506
-0.045197 -0.075616 0.160066
0.400267 0.324277 0.217776
-0.037432 0.129908 -0.459843
0.008895 -0.004799 -0.516474
0.335291 0.312863 -0.318302
0.229932 0.043923 -0.318523
0.164544 0.427726 0.144462
0.173141 0.386361 -0.241640
-0.111407 0.193497 0.145202
-0.135524 0.213913 -0.182005
0.437332 0.095745 -0.085824
-0.160176 -0.087467 -0.465454
-0.135189 0.249526 0.048584
0.227015 0.453003 -0.214747
0.093895 0.509424 -0.082159
-0.017517 0.214843 0.252756
-0.079375 -0.259292 -0.321687
0.093937 -0.194728 0.017929
-0.086534 -0.006932 0.059720
-0.032950 -0.185899 -0.525096
-0.170562 -0.139246 -0.238138
0.099438 0.393390 -0.219420
0.399810 0.198942 -0.119641
0.150871 0.447655 -0.309184
0.287849 0.094463 -0.207324
0.207742 0.410510 0.024903
0.318960 -0.049876 0.296115
0.428799 0.092423 -0.093289
0.197831 0.467054 -0.199544
0.014556 -0.057439 0.263219
0.318457 0.178184 -0.157730
-0.436109 -0.184482 -0.306471
0.355603 0.388317 -0.296793
-0.404844 -0.083975 -0.277835
-0.056390 -0.082801 0.024858
0.260787 -0.169297 0.088990
-0.115218 0.017155 -0.052688
-0.149480 -0.208192 -0.464807
0.090252 -0.098143 0.292397
-0.371623 -0.184700 -0.252420
0.443915 0.062522 0.210631
0.102737 -0.076829 -0.312141
-0.010683 0.368695 0.014206
0.181170 0.235462 -0.378999
0.268475 0.109709 -0.293517
0.289968 -0.114677 0.013748
0.291795 0.203496 -0.250865
0.303601 -0.107904 0.251912
-0.056999 0.190729 -0.425655
-0.521696 -0.177124 -0.287988
0.221005 0.335535 -0.230850
0.462802 0.303895 -0.186079
0.200768 -0.151062 0.252522
-0.166178 -0.274973 -0.218504
-0.091118 0.214594 -0.070558
-0.297802 -0.305430 -0.015160
0.107994 0.333405 -0.264836
0.147575 0.463213 0.150254
0.456385 0.247920 -0.151501
0.451476 0.304578 0.149033
0.360328 -0.003112 -0.158851
0.460316 0.158195 0.281688
0.398556 0.050143 0.280679
0.331136 0.316643 -0.325298
0.467996 0.169692 -0.061000
-0.262094 -0.253896 -0.126117
0.014004 0.405053 0.133074
-0.002799 0.404761 0.088873
0.448951 0.026631 0.145481
-0.279572 -0.288833 -0.001375
0.086216 0.395311 0.221023
-0.180091 -0.162778 -0.488763
0.223915 -0.051562 -0.184141
-0.003035 0.308728 -0.038258
0.438036 -0.018379 0.022347
-0.013554 0.342094 0.178727
0.415781 -0.048882 0.106831
-0.289659 -0.352596 0.005618
0.223900 0.456738 -0.277395
-0.004061 0.159777 -0.466835
0.191900 0.311988 0.331356
0.360753 0.346951 0.167158
-0.329451 -0.197162 -0.312190
-0.023082 0.382004 0.044428
0.496230 0.258584 0.007936
0.028797 0.503545 -0.068821
-0.040488 0.354504 0.026050
0.161012 0.366730 0.295179
0.420072 -0.006182 0.206745
0.263375 0.394758 -0.326420
0.161160 0.131530 -0.441777
-0.045504 0.097574 0.199199
-0.012546 0.025263 0.243807
-0.092978 -0.015546 -0.008193
-0.271900 -0.327007 0.013082
0.272458 0.392824 -0.334425
-0.022710 -0.127530 0.108699
-0.370685 -0.093943 -0.300124
0.088447 0.507334 -0.143092
-0.124749 0.167136 0.070374
-0.047325 0.033424 0.181168
0.493067 0.178900 -0.023485
0.336852 -0.065941 0.267101
-0.463495 -0.097864 -0.247387
-0.031552 -0.062053 0.204492
-0.089553 -0.258476 -0.366835
0.286903 0.093366 0.370536
0.244773 -0.175784 0.058498
-0.025903 0.373689 0.126290
0.066110 -0.124073 -0.275009
0.434118 0.115839 0.395038
0.475640 0.077110 -0.008316
0.030703 0.525093 -0.070752
0.000967 -0.117903 -0.539663
0.029298 0.467392 -0.065361
-0.097410 -0.075427 -0.509812
-0.303912 -0.298954 0.076128
0.127038 -0.034453 -0.351307
-0.103076 0.279040 -0.286425
0.221796 0.413028 0.210940
-0.087836 0.329197 0.083691
0.212121 0.283618 -0.255771
0.392431 0.218065 -0.121084
-0.036524 -0.111899 -0.206207
-0.206305 -0.057643 -0.402432
0.396591 0.308357 0.067206
0.300904 0.371444 -0.044968
-0.106275 -0.224493 -0.261160
-0.052460 0.135154 0.230200
0.069498 -0.122061 -0.278471
0.166610 0.487325 -0.288195
0.408584 0.309054 -0.027789
-0.064868 0.252874 -0.044382
0.194915 0.414677 0.037127
0.430413 0.331909 -0.197886
0.193949 0.154663 0.376126
-0.058622 0.353653 0.095527
0.058143 0.198860 0.321290
0.486529 0.289836 0.122146
-0.105836 0.265917 -0.309766
0.269371 0.380516 0.018025
0.450568 0.135183 0.378934
-0.210452 -0.315075 -0.123591
0.083056 0.434056 0.146228
0.444606 0.276129 0.242745
0.485475 0.101579 0.056420
0.254205 -0.074128 -0.118837
0.068671 0.269149 -0.403522
0.136146 -0.028368 -0.353674
0.123703 0.235982 -0.414307
0.308970 -0.136614 0.192713
0.264963 0.022749 -0.211018
0.157515 0.487545 -0.203063
-0.320913 -0.343434 -0.002616
0.014885 0.082558 -0.472221
-0.030002 -0.130769 -0.225209
0.405349 0.091923 -0.130867
-0.056455 0.312968 -0.275818
0.075104 0.387412 -0.080800
0.033016 -0.107394 0.244561
0.417179 0.151379 -0.116330
0.324945 0.200072 -0.162105
0.229527 0.165046 -0.369139
-0.085861 -0.051950 -0.099773
0.471426 0.186084 0.319932
0.026844 0.315668 0.235014
-0.229307 -0.079696 -0.321196
0.031124 0.412819 0.009493
0.295954 0.335699 0.319032
-0.103949 0.006391 -0.022524
-0.050196 -0.183031 -0.522988
-0.038497 0.202280 -0.437524
-0.413870 -0.132560 -0.299118
-0.297873 -0.313454 0.080422
0.122322 -0.130527 -0.395063
-0.273424 -0.192289 -0.323590
-0.065684 0.279141 -0.343409
0.391417 0.104040 0.430492
-0.178427 -0.020783 -0.441156
-0.092965 0.237632 -0.113229
0.083236 -0.018267 -0.524786
-0.215407 -0.333181 -0.121075
-0.328112 -0.333514 0.031065
0.481303 0.280541 -0.168146
0.083578 0.185266 0.338320
-0.147373 0.171562 -0.251272
0.216252 0.170993 0.373583
-0.196536 -0.104750 -0.430312
0.009995 -0.161210 0.113361
0.046278 0.389634 0.193091
-0.186745 -0.116834 -0.255920
-0.037396 -0.188000 -0.523321
0.078468 0.175466 0.336923
0.233405 0.024314 -0.268679
-0.029427 -0.244745 -0.461080
-0.064470 -0.192383 -0.516677
0.455762 0.077070 0.189581
0.083708 -0.159743 -0.063064
0.030329 0.097343 0.313688
0.449217 0.274801 -0.181435
0.494618 0.137831 0.084400
0.017752 0.140993 -0.476564
0.505792 0.165661 0.027030
0.319235 -0.135214 0.136002
0.254481 0.145564 0.373887
-0.043385 0.350627 0.132704
-0.090428 -0.208408 -0.259726
0.372631 0.060126 0.386932
-0.065901 0.239590 0.190658
-0.155153 0.122182 -0.283783
-0.082162 0.167207 0.193969
0.244540 0.057069 -0.313068
-0.102537 0.029953 0.038233
0.092887 -0.195153 0.142414
0.108251 -0.152388 -0.520647
0.165263 -0.103069 -0.143521
0.235938 -0.093896 -0.116211
0.326802 -0.118752 0.203014
-0.016249 0.317484 -0.310536
0.385341 -0.088409 0.112994
-0.185270 0.025869 -0.326219
0.251855 0.024462 0.358417
0.037073 0.116657 -0.478413
0.488103 0.127258 -0.009191
-0.381272 -0.197675 -0.282621
0.322076 -0.087758 -0.037642
-0.130511 0.223675 -0.247333
0.029997 -0.005814 -0.523626
-0.489386 -0.168284 -0.303092
0.215854 0.401429 0.067213
0.232585 0.227425 -0.317040
0.062871 0.389017 0.213731
0.321157 0.356904 0.274789
0.471099 0.192976 0.276025
0.051134 -0.078852 -0.558895
-0.056182 -0.001270 -0.518024
0.112566 -0.083651 -0.523973
0.239414 -0.181899 0.187891
0.315410 -0.082896 0.270423
-0.087270 -0.064394 -0.517163
-0.035224 0.294432 -0.106413
0.307725 0.022556 -0.173800
-0.042982 0.313295 -0.291105
0.390456 0.326501 -0.255029
-0.197471 -0.053944 -0.274916
0.267025 0.105391 0.374965
0.250455 -0.171552 0.059528
0.108104 0.460357 0.001630
0.331446 0.360911 0.083760
0.184611 0.379765 -0.235172
-0.148973 0.005231 -0.151171
0.308855 -0.101045 0.255183
-0.021548 0.319227 -0.291262
-0.318861 -0.395163 0.002583
-0.115512 -0.016483 -0.498800
0.263041 0.395494 -0.066310
0.311509 -0.117226 0.039023
0.343168 0.074454 0.351859
0.396132 0.359631 -0.208276
-0.110322 0.023898 -0.486946
0.099679 0.103675 0.364288
0.025071 0.513185 -0.066048
0.300156 -0.145884 0.112935
0.077284 -0.184696 0.161237
0.372371 0.207930 -0.126012
-0.037413 0.374150 0.107286
0.370005 0.313212 -0.287301
0.234182 -0.143800 -0.051830
0.000667 -0.248020 -0.446074
-0.035033 0.374171 0.053757
-0.233533 -0.260667 -0.006475
-0.255264 -0.121543 -0.363170
0.009381 -0.114713 -0.223372
0.297647 0.258599 0.415967
-0.190828 -0.175511 -0.198678
-0.094527 0.283117 -0.205615
0.151019 0.442504 -0.019555
-0.086270 0.110833 -0.426294
-0.055687 0.279931 -0.355014
-0.058156 0.276708 -0.033807
0.049935 -0.060124 0.295744
0.343403 0.268969 -0.213877
0.211282 -0.159832 0.241511
0.160512 0.006872 -0.385545
-0.160845 0.033027 -0.264586
0.167682 0.121804 -0.437737
0.084158 0.142185 -0.467327
-0.087625 0.171472 0.186710
0.044427 0.345425 -0.086209
0.352713 0.275188 0.393766
0.325503 0.292159 0.378744
0.339042 0.374344 -0.126366
0.146704 -0.127253 -0.476815
0.120299 0.481772 0.087206
0.215648 0.093185 -0.394877
0.086569 0.101576 -0.467134
-0.133658 0.217819 0.097520
-0.044541 0.276164 -0.367626
0.213170 0.016187 -0.313508
0.151013 -0.060240 -0.266662
-0.354147 -0.175808 -0.245701
0.343185 0.088165 0.437520
0.032673 0.387813 -0.007223
0.380323 0.300441 -0.200793
-0.073817 0.242225 -0.386258
0.466377 0.139801 0.324265
0.030273 0.338137 -0.285668
0.236516 0.400785 -0.021162
0.311289 0.314075 -0.309826
0.200526 0.266044 -0.305689
-0.135624 -0.036658 -0.489692
-0.048628 0.324617 0.141825
-0.060945 -0.252470 -0.435714
0.152254 -0.070504 -0.424662
-0.176464 -0.028720 -0.449377
-0.260320 -0.315629 0.015583
0.241550 0.323153 0.304747
0.421818 0.333769 -0.134955
-0.469125 -0.089037 -0.193084
0.058482 0.117403 -0.475593
-0.096506 0.192693 0.170728
0.299435 -0.073348 -0.074951
-0.136238 0.191979 -0.327091
0.065854 0.499913 0.073283
0.209847 0.012799 0.365026
0.195781 0.119518 0.375298
0.010193 -0.144018 -0.005823
0.240121 -0.166438 -0.003283
0.164885 0.007822 0.363165
0.274906 0.408875 -0.126897
0.121276 0.330808 -0.257672
0.458325 0.037912 -0.043243
0.439073 0.193773 0.391047
-0.009535 -0.110253 -0.062606
-0.101744 0.197903 -0.048731
-0.020160 -0.244674 -0.326242
0.432974 0.294798 0.232883
0.127639 0.459497 -0.076817
0.026776 0.486057 -0.058402
-0.211911 -0.031491 -0.357087
0.162352 0.186064 0.366955
0.486870 0.301246 -0.164076
-0.040711 -0.089823 -0.033272
0.284271 0.402287 -0.082434
0.423004 0.318833 0.120953
0.030342 0.050873 0.308859
0.173272 -0.019724 -0.316831
0.082126 -0.172986 -0.412529
0.420887 0.001630 -0.070794
0.281049 0.414401 -0.092300
-0.549100 -0.188033 -0.269504
0.022466 0.021894 -0.465186
0.025630 0.158470 -0.474818
0.012823 -0.129057 -0.543400
0.251355 0.108510 -0.336273
0.034611 -0.133693 0.215441
-0.131128 0.200513 0.102693
0.269017 0.190343 -0.273113
-0.061504 0.303880 -0.010255
0.341470 0.205895 0.445262
0.449621 0.274430 0.224754
0.077443 0.341624 0.274184
0.477321 0.169281 0.165621
0.460565 0.126837 -0.078474
-0.512381 -0.166260 -0.196961
-0.059041 -0.161292 -0.524160
-0.021399 0.113915 -0.468619
0.142063 -0.206225 0.137825
-0.043445 0.283157 -0.107593
0.123928 0.206912 -0.435055
0.327670 0.195930 -0.196515
-0.033079 0.361438 0.024553
0.002424 0.253338 0.255989
-0.151316 -0.266105 -0.101717
0.474593 0.312833 -0.115041
0.349052 -0.012764 0.298186
0.416977 0.301261 0.012236
0.426991 0.097463 0.320324
0.034768 -0.178258 0.088528
-0.174453 0.042078 -0.375795
0.430706 -0.039086 0.035102
0.133824 0.122940 0.367014
0.447587 0.009092 0.140875
-0.079030 0.218703 -0.396822
0.315671 0.379152 0.112057
0.245207 0.385687 0.080191
0.420153 0.293424 0.077304
0.205616 -0.124891 -0.099801
0.268192 0.264755 0.395908
0.358894 -0.106304 0.155474
0.222724 -0.049938 0.335408
-0.043423 0.148551 -0.453408
0.305772 -0.047470 0.307682
-0.144136 -0.211558 -0.144921
0.258312 0.401836 0.198171
-0.024307 -0.114812 0.152031
-0.057362 0.105596 0.188957
-0.327981 -0.365467 0.045839
0.113457 0.485110 0.113486
-0.291960 -0.358778 0.001470
-0.006694 0.195086 0.267991
-0.016833 0.392521 0.072761
0.326031 0.212406 0.443412
-0.122712 -0.013349 -0.493700
0.329176 -0.101057 0.022043
0.344469 0.354264 0.251353
0.086201 0.457121 -0.249276
0.253483 0.429682 -0.096909
-0.279424 -0.287806 -0.102132
0.337489 0.389668 -0.175015
-0.131801 -0.239364 -0.369078
0.457331 0.221118 0.330406
-0.100126 0.216472 -0.379376
-0.096083 -0.074198 -0.186301
0.430706 0.088765 0.345365
0.194588 0.419908 -0.285657
-0.144210 0.143116 -0.129155
0.406391 0.072199 0.354905
0.008115 0.268518 -0.402327
-0.113623 0.202826 -0.366684
0.210991 0.241084 0.358268
0.342432 0.098877 -0.153237
-0.114060 0.101306 0.012584
-0.458275 -0.191768 -0.283236
-0.153310 0.001465 -0.229933
-0.041399 -0.096364 0.114653
0.238311 0.084402 0.373905
0.181828 0.319382 0.330623
0.373860 0.062342 0.311876
0.446317 0.106487 0.329271
0.036562 0.343899 -0.269592
0.487971 0.109637 0.114499
0.452442 0.203503 -0.081732
-0.083925 -0.032942 -0.519488
-0.106733 0.261001 -0.003766
0.090373 0.448364 0.147010
0.253435 -0.170849 0.074625
0.259153 0.066971 -0.265971
0.421860 0.319700 0.162481
-0.434678 -0.170729 -0.316807
0.425587 0.003147 0.202908
-0.067165 0.123414 -0.441656
-0.497657 -0.189623 -0.266563
0.222767 -0.173015 -0.011625
-0.064340 0.314743 -0.241996
-0.555602 -0.189256 -0.217980
0.227589 0.049820 -0.342891
0.320525 -0.133525 0.139971
-0.078376 0.251975 -0.367372
0.033138 -0.224024 -0.399930
-0.280040 -0.092273 -0.322067
0.388681 0.341082 0.120605
0.087419 0.041113 0.343380
0.208609 0.446312 -0.159859
-0.292996 -0.299332 0.018411
0.160425 -0.164011 0.235330
-0.207428 -0.212983 -0.102698
0.460803 0.054568 0.131399
-0.086300 -0.250080 -0.424037
0.388917 -0.003241 0.260086
-0.403937 -0.136118 -0.311702
0.111817 0.330985 -0.274980
0.437665 0.268367 0.299660
0.377060 0.329018 0.290676
0.020333 0.346946 -0.162580
0.016751 0.511055 -0.016643
0.008771 -0.198000 -0.517935
0.374558 0.324173 0.034672
0.069788 0.432370 0.133539
0.373894 -0.053646 0.237548
0.011046 0.198622 -0.448681
0.462615 0.217199 0.316371
0.076118 -0.037533 -0.545707
0.421491 0.293339 0.284504
-0.186399 -0.177227 -0.465612
0.115781 0.307451 -0.342751
0.061709 -0.183287 -0.401633
0.259372 0.036847 0.360105
-0.039067 0.220233 -0.428553
-0.036024 0.377963 0.092338
-0.154446 -0.267412 -0.135271
-0.059926 -0.132871 -0.224841
0.085927 0.510883 -0.256783
0.120941 0.410971 0.223731
-0.082231 0.333692 0.060010
-0.207200 -0.204334 -0.124427
0.454186 0.010538 0.116033
0.391896 0.367573 -0.283017
0.132137 0.274097 0.334703
-0.126692 -0.242600 -0.335490
-0.203920 -0.251468 -0.018655
-0.202170 -0.138528 -0.445477
0.200205 0.384926 0.282280
-0.006422 -0.263312 -0.370510
0.150133 0.446292 -0.066815
0.090721 0.374723 -0.217800
0.364503 -0.070040 -0.075688
-0.114374 -0.185660 -0.221136
-0.044021 0.180117 0.236066
-0.112797 0.217184 -0.132182
-0.263797 -0.280621 0.039608
0.219964 0.237649 -0.325840
0.165815 0.318022 -0.243662
0.214125 0.396384 -0.257609
-0.038291 -0.046248 0.201369
-0.115174 0.193715 0.137936
-0.003129 -0.103075 -0.539257
0.188624 0.473408 -0.214587
0.285437 0.418653 -0.215925
0.472613 0.301750 0.047385
-0.117764 -0.202056 -0.214320
0.216105 0.439962 -0.164359
0.000331 -0.246400 -0.451431
0.403402 -0.006887 0.230740
0.253369 0.182599 0.379224
0.108708 -0.046381 -0.360035
0.391667 0.190406 0.433744
0.134012 0.022007 0.362227
0.262691 0.075994 -0.272107
-0.166254 0.071077 -0.208389
-0.140036 -0.085345 -0.482254
0.148929 0.491896 -0.197903
0.233079 0.258287 0.349028
0.019934 0.001771 0.287463
0.057138 -0.161733 -0.535521
0.280650 0.294288 -0.261410
-0.535113 -0.114124 -0.161019
0.329268 0.041758 -0.174065
-0.100673 0.102162 0.043834
-0.265745 -0.333365 -0.124982
-0.001957 0.375637 0.149396
0.169248 -0.015701 -0.341638
0.022752 0.185667 -0.461563
-0.318806 -0.329666 0.011929
-0.213940 -0.091505 -0.279220
-0.148199 -0.256676 -0.118344
-0.032660 -0.266528 -0.387143
0.044896 -0.102227 -0.552791
-0.246193 -0.229162 -0.118144
0.274377 0.431274 -0.241511
0.249714 0.207708 -0.305574
-0.142918 0.095659 -0.108481
-0.048458 0.254094 -0.060909
0.033024 -0.144081 -0.263969
-0.058254 0.293053 -0.022097
0.484057 0.195141 0.152901
0.399488 0.084485 0.413564
-0.301207 -0.338304 -0.051717
0.494056 0.274801 -0.124999
0.024370 -0.143168 0.191364
0.073432 0.323109 -0.329057
0.233769 0.412134 -0.276203
-0.138318 -0.091962 -0.216006
0.280171 0.067965 -0.184607
0.499394 0.290522 0.016042
-0.104934 0.246637 0.136338
0.457120 0.301613 -0.011994
0.109326 -0.208329 0.068860
0.257447 0.182617 -0.300551
0.168750 0.481650 -0.201021
0.065431 0.392052 -0.178391
-0.068806 0.280012 0.159927
0.001064 -0.206897 -0.510224
-0.014788 0.315150 -0.125396
-0.124122 -0.018652 -0.109984
-0.304054 -0.182536 -0.343105
-0.124951 0.084877 -0.055355
0.269424 -0.170471 0.131162
0.112842 -0.046684 -0.519971
0.397654 -0.033238 0.217666
-0.278877 -0.302383 -0.112146
-0.202579 -0.016640 -0.393016
0.213855 0.410247 0.205681
0.375968 -0.076220 0.210720
0.148368 0.491064 -0.183193
0.176681 0.028496 0.371241
0.049364 -0.072342 -0.559689
0.403451 0.310462 -0.005613
0.155342 -0.067613 -0.231807
-0.132117 0.144587 -0.105224
0.414866 -0.023782 0.180493
-0.088979 0.318928 0.033255
0.203294 0.428712 0.220969
-0.097869 0.262122 -0.013012
-0.015369 0.091816 0.248980
0.051199 0.295235 -0.368470
0.077725 0.260845 -0.408230
0.342812 -0.121563 0.148132
0.457850 0.124619 0.333079
0.328537 0.372043 0.103089
-0.222654 -0.295682 -0.201395
0.185674 0.360615 0.295108
-0.198294 -0.284446 0.010429
-0.564300 -0.194125 -0.238154
0.412174 0.233304 0.391385
0.103533 -0.140469 -0.385788
-0.559498 -0.143710 -0.215294
-0.099673 0.182048 0.168808
0.067184 0.299728 0.285646
0.349071 -0.114243 0.172143
-0.014492 -0.264072 -0.346767
0.399209 0.093300 0.308887
0.472622 0.312182 -0.088316
-0.049379 -0.092467 -0.144043
-0.056549 -0.075914 0.094481
0.243084 -0.000183 0.353151
0.021974 -0.114574 -0.138647
0.493170 0.137707 0.089706
0.431115 0.087194 0.357814
0.086716 0.386495 -0.056144
0.112351 0.227898 -0.423227
-0.213250 -0.038649 -0.363761
0.110440 0.476324 0.139877
0.376909 -0.072554 -0.052457
0.049832 0.225856 -0.441850
0.082821 0.399258 -0.200489
-0.310933 -0.358315 0.038019
-0.232070 -0.186182 -0.319010
-0.148406 -0.261148 -0.115470
0.055028 -0.100949 -0.228943
-0.103827 0.230253 -0.124357
0.020700 0.455774 -0.032684
-0.083661 -0.010811 -0.515165
0.013972 0.379736 0.005113
-0.178837 0.012384 -0.429336
0.220211 0.458790 -0.255443
-0.078086 0.055525 -0.470753
-0.113946 0.183085 -0.373903
-0.153848 0.058193 -0.400821
0.194695 0.437983 -0.300381
-0.159485 0.124726 -0.243711
0.493654 0.189571 0.092319
-0.115906 0.152097 0.099053
0.494246 0.181799 0.092524
0.243010 0.024715 -0.238345
0.356876 0.192001 -0.129973
0.254949 0.057000 -0.288159
-0.441124 -0.088914 -0.256581
-0.075243 0.315618 0.012226
-0.091644 0.293226 -0.263459
0.228942 0.257512 -0.268855
0.405934 -0.019632 -0.080533
-0.110922 -0.076275 -0.198864
-0.216245 -0.200813 -0.210801
0.018287 0.312714 -0.336631
-0.090732 0.019859 0.055896
0.326990 -0.094953 0.011507
-0.147399 0.057969 -0.414262
0.439346 0.281319 0.258280
0.281899 0.276541 -0.258787
0.465226 0.214176 0.310701
0.042824 -0.101320 0.258313
0.302961 0.366082 0.086788
-0.096273 0.081169 -0.424671
0.203562 0.023284 -0.342983
-0.115695 0.050541 -0.032302
0.136627 -0.187936 0.191426
-0.054696 0.036138 0.162955
-0.213320 -0.216227 -0.098896
0.325863 -0.075715 -0.080363
0.504820 0.145018 0.054751
0.439111 0.013917 0.160716
0.122441 0.509150 -0.240325
-0.124563 0.046553 -0.461256
0.044449 0.355371 0.221379
0.302072 0.179213 -0.239505
0.399134 0.287147 0.335706
0.022400 0.380412 -0.003065
0.465888 0.054994 0.116335
-0.071057 0.258953 0.175968
0.492491 0.124444 0.021506
-0.303321 -0.354120 0.030394
0.345615 0.352029 0.257010
0.407462 0.068990 0.279220
0.245818 -0.084939 -0.116452
-0.019797 0.318822 -0.303257
0.357933 0.316033 -0.316770
0.036194 0.433608 0.091379
0.331620 0.357286 0.173504
0.447563 0.172641 -0.084806
-0.218199 -0.049936 -0.342204
0.275507 0.118543 0.393566
-0.122435 0.093325 -0.021806
0.276615 -0.112495 -0.042922
-0.301124 -0.308209 -0.001085
0.177167 0.419168 0.072846
-0.234237 -0.095193 -0.364660
0.261464 -0.075367 -0.104320
0.054405 0.387524 -0.139880
0.433692 0.100097 0.386701
-0.226151 -0.082442 -0.381725
0.372889 0.334644 -0.091094
0.362540 0.337747 -0.048228
-0.235250 -0.084442 -0.327113
0.218030 -0.186584 0.036729
0.310331 0.362837 -0.009138
0.322504 0.160440 -0.143840
0.112572 -0.109640 -0.163356
-0.313732 -0.172956 -0.259812
0.333104 -0.064075 -0.101333
0.383091 -0.093309 0.125081
-0.162128 -0.247969 -0.062926
-0.093936 0.087027 0.068087
0.299221 0.418935 -0.317788
-0.145048 0.171645 -0.312626
0.440829 0.216266 -0.089398
-0.229354 -0.338522 -0.099444
0.418389 0.322915 0.122454
0.039639 0.256082 -0.408845
-0.121433 0.173393 -0.368472
-0.248043 -0.141429 -0.268049
0.090142 -0.000125 -0.452217
-0.408657 -0.154078 -0.327150
-0.121509 -0.240475 -0.286163
0.074268 0.409081 -0.096173
0.095933 0.382121 0.247753
-0.131223 0.030319 -0.090599
-0.156765 0.069303 -0.315535
0.088463 -0.199744 0.121375
0.471090 0.207268 -0.050168
0.495077 0.128482 0.118687
-0.144040 0.191445 -0.179354
0.108254 0.021979 0.350145
0.024108 -0.221998 -0.378797
-0.045145 0.369748 0.080762
0.363625 0.116997 0.446851
0.038264 0.305214 -0.353557
0.222497 -0.193428 0.056174
0.292300 -0.079332 -0.057358
0.270351 0.118822 -0.294579
0.469962 0.188892 -0.058512
-0.090541 -0.022918 -0.011099
0.316440 0.245031 -0.241281
-0.046054 0.319486 -0.255541
0.200005 -0.006665 0.359692
0.445581 0.308621 0.138762
0.239327 0.402825 -0.051090
0.401868 0.081111 -0.133589
0.111747 -0.169402 -0.445935
-0.155997 0.081495 -0.310385
-0.188216 -0.308056 -0.159703
-0.317967 -0.314547 0.046981
0.403810 -0.060698 -0.010175
-0.331154 -0.356564 0.010820
-0.531067 -0.109270 -0.211129
0.093770 -0.029474 0.333999
0.069477 -0.188314 0.032540
-0.610720 -0.180715 -0.199531
-0.279104 -0.289728 0.010092
0.110713 0.334412 -0.254531
0.065323 0.404308 -0.033931
0.040263 -0.219199 -0.488854
-0.236972 -0.324526 -0.085119
-0.027580 -0.126258 0.083534
0.241373 0.001796 -0.227203
0.363913 0.335337 -0.031420
-0.025268 0.147696 0.264459
0.378803 -0.010981 0.267997
0.260701 -0.060155 -0.135783
-0.145239 0.090924 -0.124633
0.430100 -0.031550 0.131094
0.061011 -0.071350 -0.558284
-0.028394 0.260243 -0.390906
0.466953 0.029498 0.030136
0.288746 0.366539 0.062369
0.429315 0.110705 0.400439
0.422855 0.061628 -0.102279
0.172369 0.484655 -0.283898
0.221717 0.402466 0.268089
0.097929 0.013571 -0.437161
0.042783 0.278072 0.281266
0.171633 0.430685 -0.001983
-0.066001 0.322432 0.130685
0.322705 0.401479 -0.245942
0.062446 -0.192643 0.084379
-0.122312 0.163689 0.072128
0.465410 0.139179 0.223129
-0.114676 -0.057340 -0.175590
0.368677 0.343415 0.168632
-0.115377 0.072904 0.006430
-0.039445 0.009109 0.205366
-0.211130 -0.035270 -0.320071
0.083158 0.505414 -0.231950
0.051134 0.319593 -0.334010
-0.154815 -0.182741 -0.166949
0.228593 0.175599 -0.366420
0.051932 -0.068806 0.291783
-0.120610 0.104680 -0.011841
0.208881 0.398712 0.188302
-0.070444 -0.213794 -0.501652
0.149095 -0.075620 -0.216931
0.396461 0.170920 0.434311
-0.007929 -0.079161 -0.538873
0.002057 0.180392 0.278688
-0.522347 -0.174464 -0.204722
-0.253028 -0.239880 -0.138274
-0.271696 -0.142779 -0.361074
0.443932 0.243943 0.328634
0.183486 -0.044285 -0.263522
0.137548 -0.091607 -0.187049
-0.134855 0.002705 -0.480284
0.286328 0.385761 0.117656
0.148002 0.496735 -0.300235
-0.047405 -0.100339 -0.188504
0.117931 -0.036344 -0.496101
0.116584 -0.142960 0.255171
0.284250 0.084347 -0.191698
0.320784 -0.019245 0.314772
0.009152 -0.148514 0.013074
0.410343 0.049860 -0.120195
0.405444 0.307842 0.012920
0.039312 0.406891 0.158800
0.094083 -0.029713 -0.527487
0.326570 -0.114461 0.214682
0.201453 -0.144012 0.259972
0.016133 0.056001 0.297166
-0.024776 -0.187790 -0.525507
0.363028 -0.096797 0.051021
0.485851 0.252016 -0.059815
-0.119667 -0.181964 -0.213265
0.191119 0.428164 0.257165
-0.185846 -0.212908 -0.293339
0.051040 -0.013678 0.315857
0.268790 0.374829 0.074566
0.433307 0.280989 -0.191057
0.509792 0.278459 0.038571
-0.128796 0.239542 0.103371
-0.046997 0.086675 0.173300
-0.124424 0.032200 -0.472036
0.331332 -0.126581 0.156945
-0.233365 -0.215148 -0.167935
0.320656 0.352997 0.035228
-0.270368 -0.160935 -0.269329
0.495301 0.151581 0.002543
0.451398 0.116850 0.363726
0.478175 0.151273 0.167391
0.231845 0.069827 -0.341251
0.117478 -0.077611 -0.515882
-0.052378 0.315427 0.145140
-0.064922 -0.168823 -0.522339
-0.004821 -0.230972 -0.330248
-0.129679 0.221262 -0.165868
0.384975 0.328232 -0.111293
-0.023159 -0.263072 -0.334852
0.479109 0.113880 -0.031827
0.452784 0.069299 0.179936
-0.198123 -0.144276 -0.269361
-0.145285 0.189071 -0.282715
-0.030225 -0.090576 -0.073383
-0.405196 -0.188488 -0.250435
-0.022800 0.274804 0.219235
0.233051 0.256576 -0.266600
0.452401 0.019079 -0.023705
-0.110144 0.001877 -0.497096
0.206598 0.188791 -0.389980
0.140083 -0.064242 -0.408571
0.384646 0.278294 -0.187742
0.429453 0.016414 0.203640
-0.209868 -0.179658 -0.408303
-0.091508 0.281285 -0.178431
0.371930 0.065137 0.315005
0.127806 0.465777 -0.306898
0.043872 0.002847 -0.499079
0.022297 0.352577 -0.136746
-0.254710 -0.315286 -0.018070
0.387177 -0.057031 -0.069695
0.415171 0.307836 0.104125
0.089823 0.471837 0.120781
0.147043 0.315100 -0.291908
0.103368 -0.130160 -0.116825
-0.063545 0.319512 0.134095
0.231767 0.211402 -0.336227
0.135774 -0.122856 0.280978
-0.023258 -0.250420 -0.326310
-0.163054 0.114281 -0.233902
0.468222 0.039177 0.058395
-0.219246 -0.106839 -0.403120
0.496544 0.207248 0.026746
0.252068 0.122978 0.374357
0.003453 -0.237926 -0.471688
0.118793 0.473832 0.063766
0.279127 0.387486 0.123963
-0.290609 -0.176864 -0.276285
0.497503 0.194045 0.074930
0.013646 0.314025 0.226259
-0.093132 0.062730 0.069201
0.045872 0.248422 -0.416968
0.421275 0.307370 0.240105
0.165887 0.112278 -0.438510
0.018855 0.482509 0.018922
-0.164423 -0.130493 -0.485320
-0.341429 -0.135463 -0.229144
0.322231 0.121395 -0.152339
0.279411 0.378407 -0.007982
-0.085980 0.238398 -0.370688
0.055411 0.355331 -0.082624
-0.113239 -0.248583 -0.326674
-0.279186 -0.134219 -0.254350
0.338004 0.350705 0.221971
0.070629 0.392413 -0.029456
0.208496 -0.190966 0.034157
-0.156129 0.048930 -0.161354
0.483169 0.096346 0.064208
0.335855 -0.130678 0.105662
0.022524 -0.042228 0.273602
-0.104445 -0.239726 -0.439912
0.402472 -0.044711 0.178363
0.342832 0.134105 -0.143692
0.341113 -0.008203 -0.161680
0.492903 0.100475 0.015869
0.515768 0.249776 0.105236
0.247709 -0.165615 0.011079
0.043523 -0.153368 -0.539709
0.212110 0.244392 -0.329416
-0.100390 0.007543 -0.008229
0.321311 0.179393 -0.145995
-0.056647 -0.053500 0.137656
-0.123514 0.129651 -0.384229
0.226825 0.444156 -0.103620
-0.109190 0.099227 -0.405695
-0.191213 -0.086351 -0.439704
-0.096931 -0.188881 -0.245633
0.161679 0.416183 0.264892
0.369548 -0.094914 0.075992
0.120467 -0.208406 0.120531
0.075350 0.420013 -0.106136
-0.133886 0.234229 0.026359
0.485650 0.283611 -0.163671
-0.163153 0.060717 -0.348240
-0.019625 -0.062839 0.219966
-0.020867 0.326030 -0.261545
-0.239268 -0.314468 -0.075661
0.459533 0.036093 0.127812
0.363287 0.249136 -0.147027
0.032057 0.443148 -0.040019
-0.080610 -0.218494 -0.493842
0.026302 -0.142340 -0.258131
0.144834 -0.086383 -0.404291
0.376439 0.173887 -0.124798
0.390397 0.329621 0.094561
0.186961 0.468253 -0.310838
0.331490 0.392543 -0.163952
-0.242907 -0.265431 -0.003793
0.119238 0.198730 0.347180
-0.048877 -0.103481 0.064335
0.139113 0.493295 -0.154063
-0.072544 -0.262843 -0.342136
0.310065 0.289438 0.382515
0.423477 -0.051083 0.017880
0.166270 0.484982 -0.310971
0.339244 -0.060655 0.269034
-0.516313 -0.156174 -0.296999
-0.238683 -0.176607 -0.370484
-0.083503 0.017934 0.113340
0.152873 0.068734 -0.435465
-0.100682 0.230985 -0.016394
0.114465 0.462768 -0.049677
0.456668 0.141620 -0.080733
-0.317768 -0.125223 -0.329397
-0.084768 0.330655 0.088544
-0.163114 0.072228 -0.257792
-0.351314 -0.153412 -0.230087
0.015135 -0.076687 0.253589
0.339781 0.361938 0.157791
-0.537587 -0.094584 -0.159514
0.157609 0.456439 0.168050
0.241393 -0.057540 0.325734
0.452045 -0.007809 0.067264
0.434827 0.285194 0.073094
0.028899 0.008383 -0.481980
0.107033 -0.055493 -0.348326
-0.120349 0.214934 0.129938
-0.156291 -0.131104 -0.494549
-0.049784 -0.011360 0.193249
-0.009757 0.332362 -0.013674
0.191720 0.201794 -0.398237
0.036605 -0.115731 -0.548366
-0.302879 -0.107764 -0.335840
-0.131902 0.255130 0.072455
-0.370906 -0.156708 -0.225186
0.026555 0.243466 -0.426270
0.148516 -0.091547 -0.179884
0.294112 0.389545 0.139262
0.071239 0.414263 -0.145410
0.262762 -0.140763 -0.017427
0.252133 -0.147086 -0.024355
-0.203096 -0.232419 -0.263717
-0.038946 0.110611 0.233048
-0.421190 -0.073471 -0.266828
-0.207841 -0.177711 -0.418034
0.167230 0.217970 0.359018
-0.061295 0.165844 0.224969
0.458262 0.229320 -0.065350
0.162563 0.480262 -0.319283
0.304877 0.145965 0.451659
0.049587 0.352647 0.237346
0.240262 -0.009735 -0.218123
0.056015 0.311690 0.266805
0.386072 0.320957 0.300066
0.319385 -0.131239 0.176209
0.354406 0.066682 0.361144
0.221837 -0.191916 0.050809
0.278151 0.334054 -0.301443
0.381374 0.320687 0.031092
0.237749 0.387911 0.094308
0.053914 -0.098500 -0.239511
-0.277646 -0.383935 -0.053798
0.299302 0.311711 -0.291073
-0.065637 0.067257 0.142384
-0.112324 0.104486 0.017050
0.146361 -0.066960 -0.416121
-0.156290 -0.072161 -0.470374
-0.034961 -0.212517 -0.505993
-0.163272 0.102414 -0.187115
0.154747 0.178067 -0.434481
0.462726 0.099794 0.197815
0.483682 0.304877 -0.061460
0.208372 0.380156 -0.235853
0.045231 -0.117287 -0.187348
0.003856 0.304788 -0.054965
-0.182461 -0.146751 -0.484493
0.090171 -0.127229 0.263374
0.342452 0.011981 -0.169629
-0.156838 -0.226265 -0.329415
0.077309 -0.115581 -0.184445
0.388566 -0.074553 0.172638
0.082175 0.420723 0.170387
-0.381328 -0.198570 -0.300594
-0.086119 0.201930 -0.400551
0.140788 -0.123212 -0.486825
0.287216 0.043618 -0.178582
-0.208380 -0.173779 -0.290707
0.293738 -0.062602 -0.094800
-0.186350 -0.018442 -0.272526
0.500336 0.287703 -0.088939
-0.192252 -0.284597 -0.001913
-0.011862 -0.098630 -0.535725
0.064667 -0.137439 0.235384
0.299048 0.138868 -0.220801
0.362640 0.340321 -0.083593
0.254442 0.378560 0.106078
-0.057145 0.357358 0.088751
-0.114698 0.217145 -0.001195
0.078768 -0.095619 0.288989
0.138157 0.493409 -0.147656
-0.153285 -0.110699 -0.480436
0.319371 0.359434 -0.350408
-0.138617 0.228344 0.041162
0.254207 0.203025 0.398644
-0.145253 -0.005773 -0.473322
-0.275516 -0.286309 0.067400
-0.143128 0.194001 -0.297320
0.447147 0.168257 0.386685
0.160011 -0.008823 -0.363790
0.045090 0.156080 -0.474873
0.224061 0.104802 -0.386822
0.082651 -0.021468 -0.529130
-0.048344 0.265274 -0.086553
0.026561 0.011876 0.299018
0.201705 0.157276 -0.404450
-0.062151 0.312746 -0.265320
0.135484 -0.128409 -0.123620
-0.131109 0.219677 -0.253306
-0.086295 0.217247 -0.392595
0.209540 0.451303 -0.191060
0.416979 0.316435 0.217226
0.368570 0.198469 -0.126808
-0.456878 -0.091260 -0.196891
0.102668 0.492686 0.087948
0.247197 0.398320 0.254628
0.414410 0.308133 0.261006
-0.417520 -0.053456 -0.257586
0.062449 -0.099159 0.276418
0.153105 -0.142593 0.261590
0.206483 0.334286 0.312380
0.287993 -0.033897 -0.138517
0.395048 0.236101 -0.128663
0.253311 0.395203 -0.042613
0.087996 0.502897 0.064124
-0.511393 -0.188415 -0.272023
0.428934 0.108680 -0.102581
0.004949 0.139610 0.286714
-0.202840 -0.029192 -0.296414
0.047299 -0.145218 -0.277249
-0.071175 -0.014844 0.112467
-0.002404 -0.152652 0.101844
0.017603 0.340494 -0.254696
-0.034582 0.156813 0.255073
-0.125921 0.253640 0.018537
-0.116404 0.027284 -0.044096
0.062405 0.523268 -0.039522
-0.078384 0.302979 -0.269731
0.384071 0.336336 -0.133420
-0.179427 -0.123870 -0.467545
0.233772 0.051536 -0.322707
-0.322395 -0.090974 -0.312779
0.307758 -0.147233 0.163218
0.099994 0.456929 0.152933
-0.006066 0.089878 0.266154
0.002387 -0.054607 0.251813
0.059477 -0.169353 -0.380803
0.378154 0.103030 -0.141922
0.058173 -0.190779 0.100084
-0.094158 -0.167671 -0.236035
0.343382 0.354945 -0.350371
0.159139 0.490108 -0.307136
-0.059942 -0.066704 -0.046235
0.278689 -0.138831 0.028971
0.173235 0.002486 0.362693
0.394960 0.336957 0.114869
-0.118815 0.284646 0.047588
0.269595 0.419296 -0.168365
0.048794 -0.225991 -0.463444
0.036588 0.478849 0.051025
-0.263281 -0.266323 -0.145482
0.149806 0.323741 -0.250321
-0.240404 -0.312375 -0.171716
0.008289 0.314770 -0.042177
0.093029 -0.055941 -0.543322
-0.052179 -0.089066 -0.134134
0.168863 0.054609 -0.419211
0.166533 0.313358 -0.260670
0.141184 0.487992 -0.116082
0.317142 0.285821 0.387169
0.297744 0.033011 -0.175157
0.105873 -0.165093 -0.063032
-0.107706 0.199100 -0.377724
0.438107 0.188493 -0.102837
0.064532 0.331982 -0.307070
0.293891 0.343277 -0.334682
-0.142329 -0.099930 -0.485437
0.105417 0.403452 -0.223879
-0.035714 0.307380 -0.159710
0.342105 -0.101197 0.218539
0.478003 0.070470 0.019706
0.086913 0.481067 -0.127451
0.160041 0.438975 -0.029234
0.037682 0.426475 -0.014080
-0.028985 -0.088619 -0.098763
-0.090103 0.218742 -0.089363
0.284932 0.393532 0.153460
0.005551 0.212281 0.273177
0.126065 0.488625 -0.309772
0.328804 0.132362 0.453004
0.472221 0.196246 0.307800
0.055536 -0.103132 -0.223425
0.375792 0.327775 0.297259
-0.082215 0.111205 0.097788
-0.360118 -0.132586 -0.328010
-0.215378 -0.190107 -0.324144
0.367457 -0.049758 0.249589
0.267962 0.012062 -0.198120
0.378149 0.342913 0.136321
0.105159 0.181843 -0.456393
-0.087187 0.016605 0.094498
0.438121 -0.016061 0.012879
-0.064426 0.205008 -0.413247
0.140765 0.036842 -0.424769
-0.391430 -0.153756 -0.331263
0.292546 -0.098748 -0.023461
0.380414 0.330657 -0.097199
0.105969 0.124382 0.362390
0.131910 0.295679 0.325670
0.034704 0.189033 0.303539
0.140202 -0.088935 -0.398448
-0.127857 0.045761 -0.068035
0.001973 -0.110947 0.204743
-0.118352 0.018637 -0.063976
0.376621 0.328625 -0.034796
0.212422 0.261399 0.347361
0.431433 0.253745 0.338963
0.509743 0.258440 0.063204
0.493343 0.145463 0.004039
0.058692 0.453707 -0.094180
-0.099515 0.275038 -0.182889
0.243743 0.445171 -0.221230
-0.272791 -0.312980 0.063695
0.347770 -0.123879 0.107537
0.446960 0.059624 0.173312
0.318318 0.153857 0.455126
0.353456 0.077120 0.427972
0.065953 0.000708 -0.486639
-0.062311 0.061271 -0.457516
0.403615 0.317221 0.262429
0.120424 0.461051 -0.061208
0.035954 -0.224052 -0.403886
0.421529 -0.038961 -0.022572
0.328897 0.283012 -0.244914
-0.145745 -0.260997 -0.146475
0.135926 0.488880 -0.106838
0.147999 -0.006211 0.356206
-0.012442 0.323641 -0.279365
-0.053931 -0.076391 -0.033886
-0.037749 0.286227 -0.363631
-0.134458 0.020344 -0.110258
-0.005348 -0.150184 -0.251205
0.012784 -0.196311 -0.327750
-0.112455 0.185352 -0.071888
0.102659 0.060217 -0.450971
-0.292743 -0.380792 -0.010671
0.199213 0.408017 0.077732
0.265454 0.022148 0.352809
-0.518805 -0.179133 -0.216033
0.117513 -0.176640 0.205783
-0.089505 -0.006006 0.051256
0.000822 0.115953 -0.474554
0.469088 0.239139 -0.128459
0.187375 -0.154774 0.248764
0.310777 0.298065 -0.269634
0.282387 0.083137 -0.224396
0.355866 0.332807 0.063955
0.349743 -0.008367 0.300104
0.156422 0.253545 -0.379167
0.087835 0.261584 0.315212
-0.142132 0.151780 -0.335712
-0.101905 0.055074 0.042714
0.388240 0.334123 -0.132547
-0.186557 -0.188317 -0.148014
0.138544 0.502411 -0.279603
-0.029136 0.281600 -0.048899
0.351436 -0.120591 0.092153
0.049016 0.028673 -0.454438
-0.058281 0.014535 -0.509827
0.157037 -0.173950 -0.052337
0.113516 -0.111796 -0.154453
-0.387589 -0.156567 -0.332284
0.223288 0.081081 -0.378808
-0.160424 -0.134315 -0.492071
0.052636 -0.117249 -0.163991
0.052106 0.291446 0.281272
-0.567127 -0.134448 -0.197270
0.500067 0.174711 0.074705
0.244084 0.406424 0.227365
-0.374149 -0.118791 -0.216543
0.211870 -0.124923 -0.095234
-0.035442 0.035132 0.204277
-0.081177 -0.029399 0.031303
0.341060 0.348513 -0.034820
-0.125906 -0.059010 -0.201142
0.057519 0.391190 -0.150039
-0.066439 0.324481 0.015209
-0.176875 0.022345 -0.288643
0.176139 0.429546 -0.012123
0.413681 -0.055599 0.071210
-0.142537 -0.146090 -0.221650
0.252847 0.156968 -0.336158
-0.137124 0.238125 0.063550
-0.207286 -0.064111 -0.283101
0.257557 0.432225 -0.199091
0.023107 0.504126 -0.061529
-0.075674 -0.182274 -0.518653
0.281916 -0.157456 0.103684
0.060302 0.286239 -0.384581
0.138489 0.399453 -0.249833
0.443999 0.130885 0.289615
0.479423 0.230678 0.195323
0.082592 0.411852 0.186599
0.478119 0.248667 0.191616
0.251329 0.364005 -0.280881
0.266785 0.045971 -0.216336
-0.096294 0.274285 -0.168415
-0.069540 -0.232128 -0.282832
0.461204 0.190949 -0.073375
0.118024 -0.155456 -0.507041
0.100712 -0.096905 -0.532408
0.493194 0.144671 -0.012545
-0.387518 -0.140527 -0.328403
0.235266 0.107121 0.375412
-0.008417 -0.135502 0.149217
0.244748 0.387779 0.064537
0.034728 -0.188737 -0.521777
-0.494645 -0.138257 -0.183098
0.271891 0.335349 -0.290391
-0.034361 0.316331 -0.174253
0.361933 0.298484 -0.232181
-0.203386 -0.116200 -0.269153
-0.149322 0.166398 -0.181426
-0.139983 0.108565 -0.355208
-0.104096 0.236318 -0.343291
-0.022261 0.258110 -0.397742
-0.084547 -0.082673 -0.188229
0.045907 0.366234 -0.184371
0.317135 0.357507 0.016296
-0.184850 -0.304507 -0.173832
-0.490193 -0.161385 -0.305668
0.498280 0.173552 0.080935
-0.606551 -0.185020 -0.171412
-0.041171 -0.261992 -0.405720
-0.087807 0.276175 -0.313941
0.444109 0.106040 0.371281
0.170548 0.357528 0.297537
-0.099476 0.227545 -0.111414
0.127057 0.325487 -0.286449
0.160088 -0.182012 0.207647
0.066944 0.504033 0.070933
0.016011 0.114296 -0.477350
0.443235 -0.010279 0.037414
-0.008156 -0.112212 -0.210713
0.345394 -0.076390 -0.074062
0.112016 -0.172943 -0.469596
-0.223642 -0.295640 -0.081297
-0.011816 0.349347 0.000907
0.033182 -0.107114 -0.213811
0.410110 0.117784 0.422294
0.209207 0.401367 0.094505
0.038703 0.452340 -0.071168
-0.013888 0.332048 -0.223152
0.330780 0.357815 -0.073458
0.419530 0.297062 0.043383
