0.185940 0.114222 -0.006766
-0.170553 -0.163777 0.066420
0.201233 0.386862 0.108118
0.220243 0.401921 0.116399
0.039176 0.199576 0.040949
-0.305564 -0.400903 0.061255
0.292659 0.393833 -0.109521
-0.182576 -0.258216 -0.108417
-0.041614 0.078399 -0.026497
-0.089497 -0.002274 -0.044187
0.097109 0.195364 -0.060163
-0.200941 -0.373206 0.035444
0.343461 0.282554 0.043696
-0.155582 -0.240525 -0.089779
-0.293915 -0.406569 0.011055
0.213351 0.346729 0.122989
0.162589 0.144499 -0.057259
0.152764 0.057513 0.052867
-0.138152 -0.186241 0.072205
0.326135 0.378703 0.040483
0.191045 0.251191 0.104970
0.078134 0.030296 -0.083599
0.118708 0.309805 0.050612
-0.363664 -0.348156 -0.067155
-0.260820 -0.215520 0.013888
-0.052974 -0.109662 0.071759
0.256223 0.256238 0.089359
0.061138 -0.019626 -0.061110
0.117254 0.314503 0.014231
-0.181747 -0.216240 0.055259
0.278134 0.412672 0.061415
0.226506 0.193182 0.065146
-0.248287 -0.238664 0.037058
0.261807 0.241386 0.089579
0.177023 0.093264 -0.016598
0.353797 0.363947 -0.033998
-0.036674 -0.177161 0.028856
0.073999 0.222871 0.084721
0.038824 -0.045500 0.067330
-0.195850 -0.316207 -0.096481
-0.108663 -0.247166 0.052857
0.207465 0.427430 -0.045937
-0.100227 -0.274390 -0.017240
0.324630 0.339724 0.152090
-0.058380 0.029528 -0.063813
-0.003847 0.157668 0.007701
0.040344 -0.009404 -0.086376
0.232681 0.386769 0.117186
0.188728 0.108737 0.055575
0.223561 0.456370 -0.072103
-0.113478 -0.065938 -0.072846
-0.118574 -0.056189 -0.067076
0.071266 0.132978 0.088402
-0.118800 -0.256695 0.034926
0.188157 0.117012 -0.007039
0.329365 0.368221 0.145260
0.193535 0.445865 -0.040281
0.005639 -0.090481 0.063589
0.214577 0.466691 -0.027982
0.035732 0.083204 0.084418
-0.174180 -0.181592 -0.089623
0.132270 0.219341 -0.068699
0.050416 0.195057 0.078014
-0.010796 -0.149968 -0.011740
-0.280808 -0.251917 -0.030324
-0.080269 -0.222548 0.025124
-0.177547 -0.332962 0.023745
0.315482 0.378975 0.139281
-0.031007 0.016270 -0.076464
-0.053250 0.064357 -0.011163
0.123421 0.014589 0.050396
-0.001862 -0.117953 -0.065239
-0.064649 -0.163751 0.053232
-0.276190 -0.337037 0.062748
0.043986 -0.091095 0.038486
-0.191539 -0.188952 0.066856
-0.240256 -0.356409 -0.121276
0.349661 0.357423 0.090246
-0.183092 -0.135591 0.045413
-0.237477 -0.403417 -0.111484
-0.046150 -0.220682 -0.008600
-0.014147 -0.128297 -0.059226
0.215363 0.271109 -0.062205
-0.130420 -0.242017 -0.100715
-0.178863 -0.106885 -0.050547
0.007734 -0.047209 0.078076
-0.078001 -0.245565 -0.043086
-0.254982 -0.399501 0.052202
0.066447 0.233162 0.018606
0.255643 0.329844 -0.077596
0.350034 0.316336 0.117169
-0.308806 -0.310345 0.035982
0.190935 0.257889 0.121460
0.128505 0.331709 0.058251
-0.067498 -0.227110 -0.046408
-0.005501 -0.059587 0.090464
0.078117 0.239898 -0.011307
0.033939 0.161450 0.053603
-0.095048 -0.031065 -0.073756
-0.047937 -0.175520 0.058686
0.049233 0.174867 -0.041336
-0.272815 -0.424632 0.042411
-0.267028 -0.389200 0.054248
0.290304 0.349035 0.135281
-0.188285 -0.250047 -0.096352
0.087235 0.227999 -0.049567
-0.192616 -0.250068 0.071347
-0.155118 -0.356935 -0.016954
-0.127058 -0.183648 -0.098287
-0.210987 -0.229680 -0.104261
0.062527 0.095374 -0.075678
0.249594 0.443608 -0.065254
-0.020620 0.054135 0.066575
-0.239955 -0.324053 0.054373
-0.337981 -0.366062 -0.090506
-0.219228 -0.180292 0.017426
-0.121128 -0.286057 -0.029242
-0.182138 -0.236085 0.069963
-0.234037 -0.392006 -0.097824
-0.228233 -0.211680 -0.069068
0.015538 0.153734 -0.013283
-0.181006 -0.179324 0.063782
-0.143839 -0.299928 -0.081903
-0.282738 -0.365333 0.054394
-0.256188 -0.426530 -0.092689
-0.124063 -0.268301 -0.077042
0.074188 0.153252 0.092778
0.340131 0.305924 -0.011577
-0.162170 -0.084044 -0.049005
-0.231665 -0.199682 0.016249
-0.021972 -0.032655 -0.095779
0.120810 0.215668 0.097556
-0.160905 -0.219694 -0.103965
0.157680 0.336758 0.091616
-0.213073 -0.157506 0.008807
-0.255267 -0.244901 0.025890
-0.133460 -0.168986 0.080728
-0.010553 -0.123728 -0.059257
0.136452 0.093858 0.077296
0.047103 -0.006585 -0.080327
-0.068398 0.020352 -0.068337
0.238027 0.167288 0.061695
-0.254324 -0.434755 -0.004044
-0.024996 -0.096052 0.084776
-0.240402 -0.433821 -0.098259
0.138347 0.098251 0.077346
-0.204819 -0.213545 0.051439
-0.249922 -0.369310 -0.112615
0.368991 0.303663 0.041991
-0.140553 -0.323324 -0.052994
-0.043420 -0.059051 0.084201
0.099398 0.016599 -0.063764
0.093718 -0.020216 0.010618
0.055598 -0.057910 -0.018070
0.208922 0.211484 -0.059625
-0.132755 -0.125377 -0.088588
0.192053 0.444639 0.111769
0.004955 0.122359 0.066225
-0.205965 -0.221312 -0.103250
-0.006966 -0.008647 -0.087733
0.028695 0.048807 0.099196
0.259340 0.179362 0.023796
-0.182629 -0.348766 0.037551
-0.148504 -0.135310 0.058486
0.060834 0.033293 -0.075205
0.112350 0.079232 -0.077771
0.146094 0.248101 0.099276
0.145055 0.081421 -0.045143
0.056698 0.075281 -0.084884
0.165614 0.162201 -0.071434
0.095912 0.250789 0.056048
0.186923 0.277079 0.101475
0.149348 0.059335 -0.026236
0.198251 0.326855 -0.065973
0.149501 0.126532 -0.058255
0.295653 0.409121 -0.060831
-0.136754 -0.057266 -0.031078
0.195178 0.190658 -0.055855
0.019857 0.098666 -0.063692
-0.113375 -0.050362 0.055513
0.123083 0.095817 -0.069048
0.314228 0.398031 -0.095527
0.366747 0.342011 0.125822
-0.300243 -0.394933 0.070515
0.085408 0.024895 0.071565
0.218465 0.461001 0.008391
0.155384 0.247527 -0.064974
-0.221765 -0.449410 -0.060942
0.354005 0.321965 -0.041245
0.152485 0.072817 0.033604
0.365699 0.305748 0.073199
-0.206783 -0.341643 -0.086958
0.225953 0.364092 0.126391
0.184865 0.125066 -0.050881
-0.001312 -0.101238 0.063293
0.338512 0.315785 0.096145
0.104205 -0.012611 -0.027172
0.249683 0.279195 0.118253
0.132301 0.105448 -0.076338
-0.023647 0.137749 0.003276
-0.347762 -0.358622 -0.092961
0.222368 0.454473 0.055471
0.080006 0.147830 0.089787
0.013742 -0.101361 -0.066183
-0.213169 -0.421958 -0.074866
-0.076477 -0.182996 0.051044
-0.009599 0.049350 0.090555
0.123846 0.283995 -0.050374
0.236455 0.451700 -0.043904
-0.109834 -0.159437 -0.101707
0.170872 0.240976 0.112293
0.100704 0.111657 -0.072706
-0.182330 -0.363557 -0.033817
-0.062641 -0.216020 -0.045285
-0.001317 -0.139087 0.002629
-0.318282 -0.381506 -0.079618
-0.180979 -0.292033 -0.093420
-0.280672 -0.274153 -0.085962
-0.109782 -0.270460 -0.002153
-0.072770 -0.254598 -0.011131
0.126486 0.096613 -0.077815
-0.042350 -0.183340 0.005940
-0.213434 -0.185291 -0.059934
0.056087 0.153847 -0.058754
0.233670 0.301908 -0.072373
-0.029062 -0.089618 -0.083376
0.149047 0.345498 -0.018572
-0.040672 0.065484 0.040875
-0.001006 -0.057835 -0.083618
-0.196024 -0.368459 0.032763
0.167497 0.172131 0.111313
0.000506 0.114320 -0.069386
0.278157 0.367993 0.159255
-0.126766 -0.021920 0.031467
-0.011620 0.095978 0.054441
0.013168 0.129532 -0.040387
0.015421 -0.081667 0.051823
-0.011429 0.129243 0.009672
-0.169751 -0.286758 0.062878
0.357947 0.324972 0.132478
-0.322348 -0.303314 -0.083156
-0.247395 -0.287191 0.048486
0.370781 0.305677 0.092604
0.204184 0.302844 -0.057883
0.189026 0.169920 -0.049345
-0.325686 -0.337214 0.027432
-0.285390 -0.382619 -0.133444
-0.182095 -0.237588 0.073263
-0.120891 -0.215885 0.073024
0.100421 0.274119 0.052961
-0.188006 -0.156154 -0.082906
-0.109569 -0.271710 -0.035050
-0.060244 -0.207387 -0.025971
-0.023140 -0.142380 0.034675
-0.365545 -0.340207 0.016754
0.072941 0.155363 -0.073383
-0.268956 -0.420105 -0.053297
0.163926 0.109145 0.088514
0.368151 0.356306 -0.072867
-0.092735 -0.233563 0.025910
-0.024456 0.026967 -0.074337
0.211624 0.449989 0.127806
-0.021666 -0.171474 0.026882
0.164823 0.355925 0.071288
0.137646 0.336736 0.053254
-0.088811 0.010310 -0.020769
0.100134 0.198343 -0.060828
-0.091674 -0.014202 0.042725
0.220508 0.138108 -0.022259
0.271094 0.412844 0.126809
0.286795 0.225031 0.023065
0.345098 0.309284 0.065572
0.139777 0.309571 -0.021686
-0.007577 0.124826 0.019107
-0.124774 -0.042639 -0.045502
0.294813 0.309724 0.124966
-0.167318 -0.138845 0.046123
0.325928 0.386143 -0.053913
-0.194054 -0.365707 0.035557
-0.104508 -0.127873 -0.087315
-0.242960 -0.197750 0.006962
0.005457 -0.113534 0.034995
-0.229829 -0.419141 -0.109651
0.240022 0.199767 -0.051140
-0.183582 -0.142864 -0.075777
-0.245988 -0.365088 -0.115810
0.045011 -0.010093 -0.089716
-0.100589 0.014057 -0.008897
0.174403 0.234502 0.109187
-0.063478 0.007396 0.059847
-0.025075 0.107562 -0.004977
-0.145624 -0.134514 -0.079212
0.168982 0.188653 -0.063451
-0.048115 -0.006451 -0.091022
0.257744 0.356435 0.126404
0.173527 0.106845 -0.056369
-0.083438 -0.179911 -0.091897
0.009110 0.156435 0.036733
-0.131844 -0.302739 -0.009127
-0.034002 -0.116824 -0.094323
-0.188370 -0.284393 0.051137
-0.253490 -0.433830 -0.024030
-0.130478 -0.315460 -0.019943
0.104607 0.267098 0.055164
0.135257 0.162309 0.094384
-0.225679 -0.406579 -0.085836
-0.045401 0.035865 -0.069122
0.102849 0.028253 0.081557
-0.095944 -0.129352 0.085006
0.099183 0.026924 0.056734
-0.035565 -0.082808 -0.081481
0.224034 0.304149 -0.064026
-0.208365 -0.236735 -0.100663
0.224218 0.238655 0.094325
0.198046 0.475464 0.017116
0.135952 0.041585 0.042283
0.294884 0.243937 0.030134
0.204400 0.262322 -0.078657
-0.154087 -0.080870 -0.025630
0.257617 0.199486 0.027715
-0.220299 -0.297196 0.065521
-0.093110 -0.063644 0.083309
0.204000 0.358936 0.123451
-0.085009 -0.228013 -0.079424
0.338955 0.304214 0.065173
-0.077167 0.036406 0.026719
0.266847 0.413754 0.155817
0.196574 0.363707 -0.056589
-0.068445 0.012475 -0.054753
-0.090668 0.004574 0.032439
-0.255409 -0.217677 -0.015805
-0.321433 -0.379413 -0.076474
0.130724 0.019020 -0.032227
-0.129854 -0.045051 -0.020721
-0.058656 -0.025300 0.077355
-0.115773 -0.048200 0.045455
-0.151906 -0.328214 0.008302
-0.260304 -0.397607 0.059457
0.233500 0.256489 0.104520
0.141479 0.101623 -0.053392
0.064635 0.244842 0.015022
0.248083 0.223631 -0.044726
-0.343862 -0.325350 -0.013864
0.132488 0.210907 0.095348
-0.264025 -0.254683 -0.061536
-0.126260 -0.103377 -0.076022
-0.239960 -0.369793 -0.112749
0.042023 0.032938 0.083159
0.053587 -0.003288 -0.087855
0.115421 0.295776 -0.013931
0.341767 0.369923 0.004120
0.275981 0.422345 -0.043220
0.172658 0.112465 0.084078
-0.298961 -0.289818 -0.070885
0.164706 0.385951 0.060236
-0.299084 -0.280967 -0.020011
-0.105036 -0.274812 -0.019505
-0.163282 -0.058904 -0.008358
0.120054 0.101867 0.097480
-0.171690 -0.118511 -0.078345
0.236618 0.405247 -0.070165
-0.160557 -0.120113 0.048163
0.015220 -0.036129 -0.082399
-0.250697 -0.324278 0.049486
0.035127 0.215866 0.005755
0.161906 0.320372 -0.049764
-0.158835 -0.309272 0.034423
0.177299 0.126069 0.089380
0.265470 0.391730 -0.085110
-0.025024 -0.175893 0.026497
0.020558 0.015495 -0.091341
0.097445 0.266887 -0.011518
-0.129948 -0.126821 0.065704
-0.341684 -0.368385 -0.024839
-0.244616 -0.375834 0.063524
-0.029760 -0.168269 0.019024
-0.013935 -0.022631 -0.100706
-0.012110 0.138293 0.038317
0.238374 0.440992 0.076405
-0.053279 0.056853 -0.039127
-0.227640 -0.333060 -0.095681
-0.090182 -0.243907 -0.048049
-0.265575 -0.419491 0.064451
0.290622 0.397780 0.134414
0.002166 -0.124730 0.017859
0.032713 0.029088 -0.084331
-0.170676 -0.103368 0.001878
0.119695 0.025331 -0.014700
0.343697 0.371186 -0.030790
-0.178680 -0.242719 -0.102330
0.163994 0.278466 -0.065266
0.092239 0.079552 0.092223
0.046421 0.104745 0.086442
0.091629 -0.012022 -0.018305
-0.127405 -0.226560 0.063145
0.103268 0.246308 -0.040491
-0.167757 -0.201434 0.057592
-0.013771 -0.159051 0.027379
0.158858 0.165589 0.101974
-0.353945 -0.352832 0.038274
0.153482 0.061697 -0.018998
-0.248703 -0.387757 -0.106014
0.012836 0.086830 0.078539
0.315195 0.307094 -0.060854
0.197157 0.308326 -0.061945
0.236928 0.439293 0.112293
-0.295120 -0.357810 0.050991
0.114935 0.006516 0.003799
-0.183318 -0.364793 -0.011995
0.059274 0.196595 -0.057031
0.157521 0.345704 0.005094
0.155646 0.221114 0.116009
-0.017734 -0.158614 -0.032938
0.389946 0.326751 0.100708
-0.168143 -0.090353 -0.007193
0.243957 0.448335 -0.072354
-0.014829 -0.132633 -0.047317
-0.074907 -0.122523 0.067907
0.002568 -0.156044 -0.006925
0.137393 0.320270 0.056869
0.072553 -0.059979 -0.033214
0.185749 0.176091 -0.072120
-0.226353 -0.252998 -0.090121
-0.188565 -0.362653 -0.058325
0.032337 0.201547 0.011608
-0.174842 -0.107479 -0.024339
0.241689 0.177694 0.026056
0.275791 0.377814 0.166829
0.012034 0.030308 0.088227
-0.226619 -0.423180 0.036979
0.392628 0.318033 -0.030367
0.217853 0.177953 -0.027350
0.078351 0.251547 0.019039
-0.052766 -0.134041 -0.096415
-0.151846 -0.348668 -0.022035
0.248327 0.362865 -0.080397
0.306321 0.317845 -0.067387
0.098850 0.203228 0.098331
-0.029846 0.102960 -0.030551
0.258809 0.436811 -0.065705
0.195126 0.179150 -0.049052
-0.077559 -0.204134 0.037041
0.321786 0.274330 0.068867
-0.352393 -0.326414 -0.075406
0.012792 0.125035 -0.054017
-0.213225 -0.167111 0.017316
0.004423 -0.062640 -0.077226
0.010562 0.017178 0.101563
-0.054857 0.064935 -0.039162
0.322167 0.330342 -0.048093
0.051286 0.132548 0.098889
-0.042190 -0.195547 -0.038200
0.177862 0.073701 0.017521
0.091105 -0.034978 -0.033058
0.205007 0.393422 -0.052930
0.032215 -0.079194 0.038079
0.268197 0.261524 -0.039742
0.307819 0.389464 0.076979
-0.024168 0.084065 -0.069440
0.363364 0.345112 0.118130
-0.362679 -0.325264 -0.002733
0.079059 0.089281 0.088727
-0.224497 -0.421637 0.029936
0.167499 0.212569 -0.074231
0.001701 0.139568 -0.033425
0.153213 0.139667 0.084677
0.165717 0.094193 -0.025162
0.128120 0.325892 0.021863
-0.347944 -0.341044 0.038231
0.270832 0.226506 0.033573
0.335730 0.308420 0.075325
0.031398 0.205492 0.005777
-0.344515 -0.364226 -0.051537
0.190300 0.243267 -0.080333
-0.111430 -0.256904 0.024057
-0.036540 -0.109986 0.081496
0.315818 0.348788 -0.076145
0.231126 0.445734 -0.083443
-0.094881 -0.024171 -0.062076
-0.173073 -0.349655 -0.007291
-0.303062 -0.274991 -0.056917
-0.292470 -0.267179 -0.021501
0.133995 0.331357 0.058580
-0.340782 -0.372472 0.019436
-0.169599 -0.351193 -0.028384
0.058740 -0.053696 -0.013634
-0.079946 -0.238403 0.024138
0.028183 -0.115027 0.001823
-0.334239 -0.345862 0.045159
-0.065746 0.002143 -0.069322
0.231065 0.383858 -0.065444
-0.313303 -0.386054 -0.068523
-0.246055 -0.195533 0.015264
0.177040 0.129845 0.087730
-0.241730 -0.183658 -0.053271
0.229090 0.284473 0.102794
-0.218794 -0.295599 0.057665
0.223571 0.269899 0.102363
0.238442 0.345790 -0.077608
0.134843 0.322283 0.047313
-0.314920 -0.304663 -0.091666
-0.031890 -0.134747 -0.067475
0.089767 0.205458 -0.054469
-0.116277 -0.187399 -0.087404
0.145454 0.330839 0.040250
-0.243452 -0.194120 -0.016664
0.163392 0.084376 -0.007937
-0.025038 -0.185754 -0.040816
-0.216223 -0.245763 -0.106131
-0.095727 -0.006671 0.032685
0.257044 0.428302 0.061496
0.295830 0.397690 0.085571
-0.196596 -0.126795 0.014729
-0.033709 -0.113485 -0.086252
0.242629 0.218127 0.094857
-0.322801 -0.383646 -0.008494
0.315388 0.385506 0.055567
-0.157694 -0.313990 -0.061637
0.248208 0.262095 -0.063870
-0.166471 -0.094688 -0.040119
0.163661 0.232877 0.106946
0.181721 0.161069 -0.050452
0.334647 0.378632 -0.040327
-0.218218 -0.137578 -0.014223
-0.061901 -0.152724 -0.096260
0.337875 0.339927 -0.077624
0.103636 0.294458 -0.024757
-0.124235 -0.043398 0.028418
-0.188232 -0.225165 0.054225
-0.081820 -0.240822 -0.019386
-0.138379 -0.082811 -0.055987
0.168031 0.156604 0.084820
0.036865 -0.015570 -0.090667
0.241921 0.432922 0.146883
0.251428 0.436148 0.013775
-0.025305 0.101048 0.025160
0.214078 0.147990 0.049922
0.346702 0.371592 -0.064901
0.036347 0.119596 0.080486
-0.339072 -0.301943 -0.024498
0.102024 0.279333 0.053492
0.098044 -0.006214 0.037249
0.074500 0.001030 -0.059494
0.209222 0.233726 0.106843
0.089160 0.076855 0.091332
0.008813 -0.048854 0.071911
0.310064 0.252658 0.002491
-0.310066 -0.306862 -0.096958
-0.047132 -0.205079 0.030604
-0.126638 -0.029260 -0.046879
-0.140309 -0.034961 0.024360
-0.116590 -0.111426 0.066293
-0.216824 -0.292957 0.057952
0.189229 0.247036 0.103735
-0.150084 -0.084820 0.052063
-0.020910 0.088532 0.073401
0.220643 0.278556 -0.061847
-0.058968 -0.106265 0.069479
-0.124659 -0.167203 0.077814
-0.287721 -0.375793 -0.132655
0.019255 0.158460 -0.031807
0.250084 0.431194 0.090861
0.053381 0.112966 0.087089
0.255343 0.232802 0.068271
-0.175542 -0.211020 0.056430
0.077176 0.064733 0.088451
0.191676 0.122676 -0.000061
0.212861 0.372543 -0.074283
0.114214 0.199507 -0.072709
0.211663 0.167605 -0.052140
0.061064 0.174862 -0.057833
-0.190947 -0.412229 -0.020139
0.177293 0.132539 0.068235
0.192050 0.428439 0.014692
-0.012015 0.139278 0.000654
0.306345 0.318441 0.109826
-0.013787 0.090147 -0.059136
0.077797 -0.033858 -0.004110
-0.029716 0.127903 0.005911
0.166610 0.118336 0.071765
-0.240697 -0.226918 -0.064329
0.188356 0.412860 -0.008824
-0.038264 -0.193591 0.025001
0.113561 0.228344 0.084972
-0.249047 -0.227782 0.036700
-0.018462 0.092771 -0.039103
0.038603 0.021194 0.082578
0.285682 0.351452 -0.068978
0.302975 0.338941 0.123671
0.038743 -0.071360 0.038743
0.034163 0.181061 0.025972
0.355544 0.353785 0.080868
-0.002000 -0.125896 -0.069099
-0.126473 -0.117058 -0.100479
0.184010 0.294008 0.101120
0.116893 0.018259 0.047026
0.086437 -0.043117 -0.029968
0.018320 -0.104718 0.035257
0.363881 0.359061 -0.067553
0.155498 0.078917 0.051189
0.085569 0.237370 0.086630
0.185359 0.382668 0.107429
0.349482 0.343926 -0.085560
-0.247756 -0.439982 0.000608
-0.075304 -0.151337 0.077598
0.276559 0.239825 0.040407
0.387370 0.336568 -0.001738
0.115212 0.083454 -0.064495
-0.182273 -0.138388 -0.082519
0.048085 0.137127 0.100901
-0.243969 -0.223869 0.017639
0.179087 0.449504 0.014693
0.273722 0.235206 0.038141
-0.101079 -0.282349 -0.048071
0.048550 0.218794 0.006495
0.276669 0.220197 -0.015402
0.299823 0.253197 0.019809
0.137286 0.109756 0.079170
0.279708 0.233538 -0.005315
0.023075 0.182510 0.003564
0.321784 0.385648 -0.007695
0.278096 0.404612 0.166216
-0.304318 -0.401118 0.040350
0.044542 -0.009372 -0.074929
0.079645 0.216912 -0.049634
-0.210128 -0.314207 0.047765
0.365226 0.329483 -0.067672
-0.011701 -0.048157 0.076233
0.072230 0.268530 0.015935
0.164695 0.169860 0.105995
0.168356 0.409053 0.052832
0.061800 0.190282 -0.044889
0.077036 0.167035 0.100795
0.303423 0.346530 0.142483
0.328608 0.386955 -0.090153
-0.203094 -0.435028 -0.043048
0.198197 0.429003 0.112521
0.261497 0.208446 0.029660
-0.027851 0.058644 -0.067080
-0.227500 -0.188788 0.015539
-0.027729 -0.180447 -0.043984
0.334802 0.268629 0.040976
-0.178668 -0.128901 0.046447
-0.043593 0.001491 -0.092310
0.186247 0.132944 -0.055135
0.249107 0.201399 0.048757
0.033595 -0.058948 0.051174
0.405006 0.314653 0.023862
-0.034998 0.081070 0.039085
-0.113772 -0.033303 0.030956
-0.295049 -0.396861 0.071955
0.266900 0.306295 0.123934
0.045603 0.023294 -0.075064
0.091473 0.197660 -0.055951
0.151443 0.354260 0.053357
0.201930 0.283410 0.122772
-0.070820 -0.246361 -0.008503
-0.084957 -0.158357 -0.085671
-0.281402 -0.327655 0.056434
0.199874 0.419211 -0.013893
-0.183769 -0.172185 -0.077958
-0.025272 0.080825 -0.064954
0.092626 0.019745 0.075985
-0.215681 -0.144539 0.018479
-0.135480 -0.028175 0.024888
0.052007 0.194004 0.081868
0.043138 0.103961 0.086643
0.070280 0.201421 -0.062186
-0.000066 0.133817 -0.033417
0.020680 0.044898 -0.077492
0.224473 0.188552 -0.029638
0.085007 0.275154 0.052316
0.153012 0.206512 0.116531
0.280500 0.266559 0.099614
0.188542 0.303071 0.102384
0.230277 0.235333 -0.070992
-0.040088 -0.121740 -0.086272
0.226984 0.413567 -0.065861
-0.080621 0.015654 0.034123
-0.022622 0.118391 -0.001525
-0.094589 -0.270243 0.020140
0.168735 0.373414 -0.026460
0.272844 0.214345 -0.016082
0.011434 -0.008890 0.079323
-0.101666 -0.099899 0.066625
-0.081774 -0.167014 0.077876
-0.239037 -0.332166 -0.111634
0.001427 0.124978 -0.035113
0.066832 -0.045618 -0.021901
0.313317 0.323876 -0.054866
-0.064907 -0.199839 0.054884
0.017743 -0.115981 -0.031825
0.076946 0.114155 0.103055
0.052633 -0.071241 -0.003996
0.241393 0.168361 0.057051
0.265713 0.414849 0.152521
0.019085 0.057564 -0.077197
0.026094 0.104181 0.088835
-0.031423 0.073792 0.071871
0.142095 0.333155 -0.011923
0.075950 -0.012566 0.075687
0.219982 0.360337 -0.071095
-0.088134 -0.011275 -0.066773
0.264341 0.261761 0.090619
-0.134023 -0.074817 0.054638
0.090737 0.276592 0.055518
-0.176292 -0.353361 -0.006645
0.395519 0.316450 -0.022597
0.183435 0.097712 -0.017710
0.243483 0.295859 -0.056578
-0.071327 -0.040145 -0.089781
0.329184 0.308430 -0.035947
-0.145592 -0.062518 -0.018111
-0.172527 -0.102290 0.011798
-0.184576 -0.391983 -0.015448
-0.223666 -0.297127 -0.097350
-0.199045 -0.258136 -0.093890
-0.166840 -0.260903 -0.089985
0.242303 0.202376 0.061088
0.073981 0.011974 -0.059713
0.113158 0.308006 -0.018132
0.016173 0.170127 0.039269
0.084803 -0.028896 -0.025638
-0.174342 -0.289425 0.047644
-0.213665 -0.334435 0.057997
-0.197230 -0.214449 -0.094045
0.097031 0.002831 -0.031873
0.282458 0.389887 0.168667
0.190832 0.112871 0.055327
0.254286 0.224054 -0.020120
-0.298007 -0.405675 0.038770
0.025296 0.158762 0.078500
-0.221445 -0.173581 -0.007695
-0.173996 -0.202310 0.056230
-0.033168 0.105089 0.035018
0.184599 0.249490 0.120875
0.148712 0.052164 0.052405
-0.161835 -0.074683 -0.015641
0.343475 0.312722 0.088412
-0.126867 -0.222013 -0.091133
-0.184896 -0.197804 0.059876
0.234546 0.227869 -0.043549
-0.200215 -0.162193 -0.083015
0.085198 0.240469 0.084463
-0.129514 -0.115743 -0.098837
-0.073783 -0.070805 0.070567
-0.221797 -0.415538 -0.094214
0.070594 0.030876 0.097033
0.037920 0.080413 -0.075298
0.340005 0.371823 -0.003581
0.079820 0.118194 0.110443
0.027616 -0.023239 0.075065
0.097056 0.015512 -0.038916
0.243012 0.268484 0.102405
0.301030 0.403023 -0.033468
-0.252877 -0.280305 0.050059
-0.342946 -0.357792 -0.100733
0.196521 0.417056 0.068291
-0.072752 0.055730 0.031680
-0.343589 -0.360822 -0.099309
0.143261 0.302606 -0.029055
0.150619 0.184674 0.096299
-0.157655 -0.070799 -0.007697
-0.198502 -0.205183 0.056692
0.058929 0.076995 -0.092868
0.189966 0.478874 0.050544
-0.138774 -0.130932 -0.100502
-0.004286 0.128430 0.022431
0.216040 0.308190 0.118969
-0.232901 -0.444277 -0.080320
0.164713 0.407801 0.001107
-0.243404 -0.220542 0.044291
-0.070339 -0.046334 -0.093783
-0.170256 -0.268008 0.055781
0.281311 0.402414 0.163802
0.069025 0.203479 -0.065230
-0.263629 -0.254092 0.016650
0.071697 0.034460 0.079314
0.195532 0.127055 0.003114
0.232620 0.272462 0.105218
0.111532 0.126004 0.091151
0.003030 -0.106330 -0.059029
-0.135537 -0.051208 0.026476
-0.211406 -0.453589 -0.013306
-0.222028 -0.247862 -0.098883
0.259942 0.249579 -0.040781
0.078808 0.213461 -0.042442
0.184685 0.460680 -0.026213
-0.188059 -0.411911 -0.029116
-0.081759 0.000073 0.042554
-0.094359 -0.252673 -0.034529
0.355165 0.361279 -0.012584
0.339492 0.378770 -0.088645
0.218525 0.331867 0.123023
0.077027 0.210073 -0.061063
0.020533 0.134410 -0.049384
-0.108760 -0.013436 0.003813
0.228957 0.447645 0.080647
-0.087786 -0.173966 0.068103
0.254481 0.245431 0.090179
-0.116201 -0.283608 -0.040502
-0.108076 -0.157229 -0.100394
0.234683 0.198617 0.092036
-0.073471 -0.199602 0.035341
0.289965 0.340369 -0.070458
-0.204108 -0.221953 -0.088624
-0.132665 -0.030624 0.024189
0.039275 -0.083771 0.038218
-0.105571 -0.129617 0.072608
0.193707 0.433103 0.106072
0.283645 0.308022 -0.067993
0.107009 0.144644 -0.078246
0.318934 0.394513 -0.095145
-0.213139 -0.174367 0.019145
-0.002777 0.057672 -0.071450
-0.201885 -0.132432 -0.048434
0.095373 0.213567 0.079036
0.041625 0.179140 0.049707
-0.265048 -0.421664 -0.070634
-0.013935 0.092660 0.057088
-0.071664 -0.105992 0.072184
0.119089 0.304380 0.010695
0.135825 0.026528 -0.031629
-0.178206 -0.201745 0.056362
0.048082 0.180879 -0.033771
-0.000032 -0.141668 0.035179
-0.129701 -0.028850 0.029913
-0.036772 0.083966 0.020370
-0.286865 -0.388222 -0.132022
0.270631 0.412742 0.132584
0.085434 0.145098 -0.070927
-0.113311 -0.254757 0.044727
0.059824 0.006019 -0.085034
0.316734 0.392348 -0.045987
0.157581 0.042253 0.011187
-0.280760 -0.280788 0.017733
-0.099385 0.021847 0.031216
0.075803 0.102651 0.107318
0.105343 0.023593 -0.064016
-0.114495 -0.251874 -0.074865
0.024459 -0.095437 0.019044
0.147743 0.254496 0.101216
0.025970 -0.119422 -0.038047
0.176719 0.102773 -0.005224
-0.212961 -0.395737 0.043384
0.123718 0.237246 0.090115
0.181711 0.089373 0.053171
0.101427 0.269994 -0.005256
0.098562 0.179225 0.092784
-0.117642 -0.142944 0.068261
0.234859 0.292967 -0.058293
-0.009265 0.069532 -0.064149
-0.125793 -0.296007 -0.009307
0.035023 -0.065289 -0.058222
-0.320463 -0.289294 -0.037410
-0.185286 -0.108692 0.022549
0.327779 0.330290 0.135352
-0.186056 -0.129658 -0.051052
-0.002002 -0.139442 -0.040277
0.123766 0.015293 0.005428
0.219139 0.293651 -0.078127
-0.027009 -0.072598 0.074430
-0.276021 -0.416018 -0.038389
0.003209 -0.074028 0.062149
-0.124223 -0.163647 0.081990
-0.024571 -0.026907 -0.084638
-0.014823 -0.065255 0.079449
0.171521 0.350577 -0.043412
0.378967 0.304234 -0.005108
-0.075538 -0.204545 0.048701
0.036055 0.209572 0.011763
-0.008171 -0.076110 -0.094265
0.158393 0.340294 0.090199
0.088780 0.138434 -0.071125
0.011809 -0.064376 0.062976
-0.283966 -0.249165 -0.055589
0.275242 0.243520 -0.013808
-0.053559 -0.085732 -0.103205
0.106937 0.256491 0.068456
0.143027 0.287724 0.082830
0.083239 0.212242 0.077605
0.172450 0.232318 0.119754
0.207128 0.135406 0.011081
-0.084913 -0.113128 -0.092434
0.035153 -0.066914 -0.043607
-0.264393 -0.242798 0.010626
0.290251 0.412226 -0.049177
0.155204 0.342207 -0.017283
0.250677 0.341269 -0.084500
-0.186728 -0.378438 -0.067841
-0.207871 -0.412903 0.002890
-0.144936 -0.152426 -0.094408
0.330198 0.336726 -0.064857
-0.156659 -0.255555 -0.090479
0.038027 0.186576 -0.004490
0.002608 -0.140323 0.036264
-0.106838 -0.235893 0.048247
-0.106194 -0.296333 -0.011911
-0.293798 -0.372830 -0.132309
-0.125718 -0.075669 -0.075343
0.046616 -0.083424 0.034827
0.198950 0.191135 -0.051252
0.257960 0.422985 0.121578
-0.247955 -0.438925 -0.011181
0.219564 0.222749 -0.052157
0.198982 0.265860 0.109256
-0.037113 0.027460 -0.067137
0.155797 0.365412 0.038049
0.269271 0.257714 0.078038
0.042421 -0.061803 -0.039643
-0.044114 -0.109401 0.080146
-0.131484 -0.080984 0.051856
-0.210321 -0.444434 0.009414
-0.153206 -0.077774 0.000849
-0.226442 -0.435149 0.039022
-0.133029 -0.278549 0.025758
0.186665 0.178018 -0.076321
-0.141012 -0.292825 -0.060129
-0.206133 -0.415369 -0.009221
0.175722 0.172813 0.089662
-0.012574 0.122829 0.012238
-0.295450 -0.350718 0.052203
0.204860 0.140241 0.030009
-0.149687 -0.049274 0.024816
-0.004449 -0.053631 0.082788
0.199836 0.367038 -0.057634
0.205308 0.163255 -0.050439
-0.087633 -0.227637 -0.070239
-0.319128 -0.338378 -0.092844
-0.116312 -0.091081 0.063605
0.200958 0.463869 -0.048799
-0.155566 -0.328165 -0.007047
-0.029577 0.129359 -0.000262
-0.034718 -0.162653 -0.076007
-0.163512 -0.100545 -0.049444
-0.179817 -0.182936 -0.082547
0.056140 0.187665 0.078250
-0.193641 -0.407912 0.011947
0.379773 0.300507 0.025121
-0.056949 -0.001778 0.064068
0.354755 0.333257 -0.074404
0.239299 0.440833 -0.089294
0.163111 0.206312 -0.084113
-0.182693 -0.308593 -0.094132
-0.033638 0.042364 -0.066347
0.258856 0.430018 0.021851
-0.266022 -0.303526 -0.103588
0.262639 0.276758 -0.044081
-0.068101 0.043081 -0.030297
0.031196 -0.088482 0.036807
-0.213897 -0.164690 -0.001869
-0.184705 -0.184892 0.052227
0.175585 0.234661 -0.082400
0.198237 0.282105 0.107804
-0.039328 0.002798 -0.084040
0.331981 0.294028 0.079530
0.252168 0.268548 -0.061948
0.166965 0.257650 -0.062551
-0.140158 -0.217474 -0.089236
-0.350660 -0.365563 0.024796
0.271049 0.248322 -0.019530
0.295106 0.357556 0.159908
0.189293 0.235964 -0.065243
0.318199 0.336159 0.134638
0.038269 0.154487 0.073274
-0.244991 -0.207996 0.012810
0.151335 0.097817 0.065936
0.069338 -0.062668 0.005989
0.046063 0.050078 -0.091261
0.257302 0.270311 -0.066485
0.113574 0.016607 -0.016797
0.160443 0.355102 -0.005104
0.260447 0.381144 0.158029
-0.096674 -0.255521 -0.025541
-0.067797 -0.052442 -0.086069
-0.051803 0.094200 -0.003143
-0.335215 -0.319318 0.001091
-0.266109 -0.420138 -0.080224
0.209540 0.417372 0.112692
0.165295 0.359219 0.084054
-0.108224 -0.229893 -0.073690
0.061332 0.236617 0.045929
-0.163767 -0.366392 -0.023677
0.216807 0.136215 0.053913
-0.193438 -0.261452 -0.100356
0.039961 -0.076084 0.023417
0.243086 0.263057 -0.067103
-0.363907 -0.324492 -0.007112
-0.353150 -0.327295 0.008596
0.302905 0.253529 0.037681
-0.153918 -0.103077 -0.072009
-0.038881 0.059126 0.056189
-0.116687 -0.026571 0.005654
-0.164784 -0.341046 0.013169
0.025238 -0.035038 -0.080584
-0.161673 -0.117923 -0.065846
-0.225646 -0.148156 -0.019182
-0.204004 -0.330796 0.056648
-0.128560 -0.291036 -0.051271
0.226652 0.393996 0.114010
0.156809 0.184991 -0.066205
0.027401 -0.050039 0.064421
-0.207620 -0.292295 -0.100520
-0.133507 -0.078384 0.052832
-0.022275 -0.160966 -0.030159
-0.147060 -0.214024 0.058754
-0.090721 -0.221310 0.035320
0.310374 0.389968 0.045923
-0.041763 0.050852 0.065631
-0.115322 -0.088314 -0.075224
-0.002921 -0.136078 -0.028460
0.011377 0.122651 -0.052759
-0.026096 0.079833 0.062679
-0.288227 -0.295870 0.032037
0.172450 0.277978 0.099960
0.329962 0.331016 0.140325
-0.050095 -0.106607 0.072430
-0.075779 0.003450 0.061139
0.177335 0.124995 -0.035178
0.055395 0.014364 0.078920
-0.169345 -0.122465 0.040346
0.158545 0.349900 -0.017063
0.277131 0.229352 0.031084
-0.084724 -0.083034 0.068896
-0.157189 -0.309581 -0.078549
0.192812 0.440859 -0.019522
0.015598 0.082663 -0.087923
0.105668 0.079880 0.083374
-0.231026 -0.267591 -0.102096
-0.258856 -0.430626 -0.014012
-0.050980 -0.082884 0.072938
-0.276482 -0.411191 0.069005
0.162790 0.087159 0.032924
-0.107075 -0.044446 0.055551
0.286347 0.351090 0.131498
0.182714 0.440689 0.024930
0.044104 -0.082075 0.006649
0.358483 0.309477 0.081144
-0.186350 -0.350598 -0.072853
-0.143579 -0.332559 -0.021177
0.172275 0.325257 0.085759
0.046206 0.158963 -0.059912
-0.140410 -0.060873 0.008946
-0.107942 -0.211349 -0.083474
-0.192766 -0.364876 -0.068508
-0.075837 0.035740 0.004978
0.256422 0.223345 -0.042605
-0.211000 -0.430879 -0.077790
0.080977 0.105959 -0.088281
-0.149406 -0.187453 -0.090045
0.003253 -0.148286 -0.040612
-0.216522 -0.280550 0.056094
0.071080 -0.039022 0.014837
0.314268 0.346956 -0.070452
0.163345 0.386704 0.054221
0.294524 0.251141 -0.012078
-0.049815 0.087289 0.003064
-0.191417 -0.270784 -0.099630
0.178491 0.240384 -0.071286
0.239914 0.414893 -0.088462
-0.329025 -0.353728 0.054633
0.284396 0.367813 0.164421
0.345510 0.362093 0.069607
-0.251373 -0.352590 -0.123018
0.196567 0.328457 -0.050859
-0.261626 -0.431580 0.024964
0.084648 0.018968 -0.058066
0.056279 0.210752 0.029194
-0.178391 -0.340579 0.016093
-0.057717 0.078784 0.002041
-0.016700 -0.128135 0.056520
-0.034850 -0.090090 0.075859
-0.210409 -0.381519 -0.103896
0.158270 0.229866 0.102663
-0.179814 -0.128086 0.052456
-0.298315 -0.270122 -0.062290
0.134203 0.295394 0.064780
0.215251 0.159803 -0.019975
-0.286548 -0.290464 -0.077582
0.344924 0.372592 -0.060771
-0.092436 -0.078287 -0.092996
0.337197 0.352805 -0.093884
0.039860 0.083596 0.085301
0.192442 0.444541 -0.034839
0.325820 0.384581 -0.103250
0.298290 0.406171 -0.047949
0.072727 -0.017980 -0.065472
0.046767 -0.045779 0.065107
-0.232411 -0.271863 -0.099975
-0.317406 -0.318317 0.042602
0.285544 0.419740 -0.101309
-0.240008 -0.430755 -0.100236
0.070033 0.215883 0.085244
-0.004373 0.128126 -0.021023
-0.365185 -0.327494 -0.063021
-0.084356 -0.047773 0.070377
-0.066396 -0.081875 -0.086965
0.065986 -0.070750 0.005656
-0.136162 -0.044154 -0.047211
-0.008789 -0.114457 0.063858
0.246420 0.429190 0.152032
-0.232871 -0.212126 -0.079552
0.033164 0.039657 0.089185
-0.080906 -0.175133 0.054301
-0.175037 -0.272213 0.054289
-0.278193 -0.414947 -0.031404
-0.318651 -0.380204 -0.092948
-0.102934 -0.205152 -0.091986
0.102986 0.079820 0.092501
-0.017351 -0.163987 0.027086
0.006202 0.069522 -0.070985
-0.119572 -0.034048 0.028790
-0.066852 -0.245427 -0.014035
0.244034 0.208090 -0.043113
0.067176 -0.064290 -0.037859
0.073310 0.258622 0.052195
0.105786 0.299573 0.058290
0.374986 0.348292 -0.034685
-0.182428 -0.144752 -0.085791
-0.126620 -0.025471 0.029878
-0.186947 -0.106749 0.017711
-0.014208 0.030953 -0.091586
-0.085882 -0.118494 0.075154
0.005538 -0.117248 -0.040070
0.207548 0.207793 0.087750
0.053211 0.172027 -0.060570
-0.042285 -0.206223 -0.044992
0.180954 0.107795 -0.006568
-0.011540 0.097557 -0.062667
0.116556 0.017031 -0.019666
-0.054376 0.062626 0.024563
0.137847 0.341178 -0.015495
0.049987 0.172976 -0.063343
0.203947 0.215538 -0.065927
-0.104528 -0.000191 -0.044150
-0.161683 -0.329950 0.014377
-0.091319 -0.259412 -0.008802
0.115846 0.034768 -0.056767
-0.274331 -0.238523 0.010262
0.125545 0.056997 0.075756
0.145038 0.097452 -0.052596
0.035849 -0.076987 -0.067126
-0.257381 -0.319591 -0.110429
-0.298024 -0.324855 0.057116
-0.183370 -0.121704 0.001799
-0.037795 0.073086 -0.038421
0.296592 0.302898 -0.060601
0.261517 0.246525 -0.041395
-0.030844 0.064834 -0.050619
0.280152 0.418050 -0.027630
0.357875 0.350016 0.107324
0.090853 0.015832 0.055656
0.237632 0.417169 -0.087936
0.109372 0.020597 0.046630
0.208860 0.141797 -0.008999
-0.241208 -0.335473 0.048834
0.288592 0.365584 -0.076149
0.116447 0.278024 -0.024413
0.227988 0.446698 0.102220
-0.115464 -0.010796 -0.011054
-0.211465 -0.163192 -0.036287
0.227280 0.332415 -0.074850
-0.123042 -0.178527 -0.097051
0.270387 0.208001 -0.017611
0.224709 0.426833 -0.079751
-0.228137 -0.339761 -0.103669
0.253489 0.438157 -0.032044
-0.288875 -0.288581 -0.087641
0.083175 0.172041 -0.065490
0.401720 0.319938 -0.009573
-0.152434 -0.306532 0.020155
0.038916 0.145553 -0.060136
-0.047755 -0.222195 -0.005639
0.016060 0.188234 0.010340
-0.226672 -0.205323 -0.077415
0.389731 0.332536 0.027825
-0.248487 -0.240091 -0.069307
0.029132 -0.064350 0.056102
0.027159 -0.021667 0.093743
-0.036141 0.008591 0.082660
-0.046124 -0.121411 0.079039
0.027045 0.094579 -0.089351
-0.216024 -0.189580 -0.086972
0.289690 0.401539 0.094670
0.245167 0.254974 0.089700
-0.285543 -0.302429 0.032232
-0.132511 -0.113229 -0.076972
-0.206097 -0.142745 -0.011789
-0.138895 -0.252808 -0.095366
-0.170179 -0.275323 -0.091887
0.248826 0.191721 0.015618
0.131213 0.041394 -0.005136
-0.244511 -0.234964 -0.071209
-0.181590 -0.116686 -0.003772
0.271381 0.195817 0.023785
0.189394 0.429911 0.036951
-0.221499 -0.255729 0.050703
0.188299 0.430835 0.044122
0.010122 0.073853 -0.087145
-0.296853 -0.272984 -0.061241
-0.048173 -0.143645 -0.070807
0.226038 0.348639 -0.072187
0.354065 0.320044 0.127984
0.215459 0.311553 0.116879
0.029538 0.184974 0.001807
0.025682 -0.100833 -0.037436
0.109175 0.215871 -0.056542
0.200939 0.470214 0.057353
-0.040403 0.052734 -0.074741
0.306188 0.396819 -0.002630
0.189761 0.273453 -0.060502
-0.119107 -0.285305 0.010782
-0.069498 -0.152014 0.075450
0.154763 0.316758 -0.054810
-0.136511 -0.140485 -0.094220
0.006553 0.129196 0.078462
0.037161 -0.081824 -0.015174
-0.283425 -0.315581 -0.106051
-0.191826 -0.381791 -0.071080
0.228638 0.186171 -0.045430
-0.023495 -0.054192 0.074839
-0.032149 -0.082056 0.074648
0.263356 0.209177 0.063512
0.314762 0.271918 0.069435
-0.219055 -0.244437 -0.096204
-0.023046 -0.044358 -0.089965
-0.167043 -0.093782 -0.004162
0.172383 0.197951 0.097783
0.001034 -0.068191 -0.092636
-0.082753 -0.187070 0.050927
0.113836 0.180240 -0.067776
-0.085415 -0.144459 0.065998
0.224040 0.195580 0.079106
-0.342904 -0.371099 0.022038
-0.028619 0.087872 -0.037201
0.193748 0.161212 0.084918
-0.144501 -0.298489 0.020005
-0.024583 0.105934 0.029869
-0.000886 0.131943 -0.012743
0.149475 0.314789 0.077967
-0.238568 -0.210173 0.015506
0.343519 0.287217 0.043059
0.262433 0.430154 -0.099638
0.161551 0.385499 0.012081
0.174395 0.292300 -0.061464
-0.032093 -0.012548 -0.081239
0.269962 0.225006 0.055222
-0.248793 -0.437977 -0.015419
-0.102992 -0.249747 -0.081236
-0.130152 -0.018618 -0.005706
0.317322 0.396304 -0.102877
0.029190 0.202280 0.011116
0.004288 -0.132296 -0.009402
0.040352 -0.081462 -0.008831
-0.361241 -0.349111 -0.073570
-0.195398 -0.378399 -0.078199
0.069824 0.229129 0.030535
0.327555 0.305741 -0.041258
0.328338 0.270633 0.059676
0.210144 0.323965 -0.062742
-0.067442 -0.103575 -0.094488
0.253422 0.432108 0.046969
0.035412 -0.067516 -0.060639
0.059679 0.207838 0.080669
0.150960 0.362574 0.051176
0.107212 -0.006517 -0.032373
-0.107191 -0.035560 -0.050060
-0.180126 -0.131408 0.045834
-0.205817 -0.410817 0.008769
0.334758 0.381025 -0.072385
-0.255927 -0.318265 -0.104384
0.154691 0.193750 -0.073251
-0.206834 -0.350400 -0.100931
-0.142989 -0.078270 -0.049388
-0.248869 -0.243564 -0.085658
0.221842 0.155381 0.012568
-0.105061 -0.202738 -0.098790
0.119867 0.307808 -0.022146
0.068871 0.247752 -0.022781
0.002246 -0.106249 -0.052762
0.088277 0.119086 0.102399
-0.013115 -0.119202 0.047669
0.130411 0.263211 0.082275
-0.132587 -0.170620 -0.091116
-0.055818 0.046247 0.069278
0.189184 0.189243 -0.075065
0.320804 0.330003 0.126136
0.154703 0.325746 0.064131
0.040531 0.007133 0.088009
-0.014085 0.125629 -0.035613
-0.266161 -0.278191 0.031755
-0.137445 -0.234447 -0.091151
0.341167 0.369007 0.021746
0.225902 0.345155 -0.072386
0.396090 0.313074 0.073513
0.053397 0.189791 0.072991
0.300122 0.276586 0.090585
0.060717 -0.037120 -0.038399
-0.076319 -0.047555 -0.088099
0.290856 0.250379 -0.002921
0.210657 0.468461 -0.013265
-0.145438 -0.250992 0.062793
0.059947 -0.028321 -0.063234
-0.174405 -0.118227 0.023369
-0.178192 -0.384926 -0.032661
0.329342 0.373042 0.083025
-0.143331 -0.205368 0.060738
0.014572 -0.117033 -0.030125
0.318646 0.278017 0.090475
0.204901 0.467064 0.060114
-0.054040 -0.053652 -0.082855
0.190376 0.115797 0.007357
0.268580 0.282698 0.113216
-0.184209 -0.362634 -0.005279
0.292818 0.246633 -0.005935
-0.071135 -0.231576 -0.005864
-0.139626 -0.252781 -0.085896
0.001598 0.109619 -0.046851
-0.036732 0.070450 -0.067935
0.121724 0.214560 -0.076667
0.218564 0.191244 -0.045750
0.181859 0.178361 -0.078391
-0.090114 -0.198488 -0.074005
-0.188812 -0.358309 0.037256
0.293484 0.409951 -0.050755
0.007726 0.122553 0.073191
-0.170797 -0.283041 0.054825
0.105734 0.288194 0.021782
-0.086727 -0.161410 0.069956
0.071040 0.255936 0.051409
-0.187080 -0.371714 -0.008502
-0.060130 -0.204650 0.008589
0.089771 0.052154 -0.086587
0.188196 0.431637 0.033148
0.240705 0.284899 0.106660
0.396018 0.307706 0.066747
-0.243406 -0.309580 0.047083
0.024325 -0.009663 0.083315
0.177736 0.131546 0.064115
0.140584 0.345722 0.016687
-0.215942 -0.189830 -0.076902
-0.204936 -0.139698 -0.021323
-0.192837 -0.175680 0.042771
0.226721 0.153001 -0.020398
-0.196986 -0.360924 0.031209
0.263642 0.245315 0.098146
0.211755 0.442465 0.133414
0.264744 0.221360 0.035753
0.188710 0.436536 0.090831
-0.151271 -0.321818 -0.003947
-0.163007 -0.109971 -0.052652
0.243156 0.386542 -0.063914
-0.134240 -0.052859 -0.045883
-0.325409 -0.379029 -0.043269
0.033071 0.180437 0.023114
-0.328673 -0.376525 0.055750
0.151489 0.297423 -0.048273
0.040790 0.205659 -0.025353
0.052709 -0.044398 -0.067212
-0.051197 0.054185 0.068979
0.128841 0.294924 0.059207
0.043848 0.182594 0.049783
0.269564 0.239549 -0.047387
-0.345845 -0.360227 -0.090584
-0.008444 0.120840 -0.015425
-0.289174 -0.251224 0.008163
-0.053084 -0.000466 0.084369
-0.066087 0.021600 -0.066854
0.101458 0.205088 -0.057467
-0.233251 -0.404099 -0.099283
-0.262335 -0.234305 -0.005519
0.022033 0.000080 -0.077928
0.309526 0.359049 -0.082637
0.176839 0.214770 -0.065036
0.135982 0.333737 0.058662
0.327144 0.369064 0.155682
-0.021180 -0.067488 0.076160
-0.135784 -0.055255 -0.024324
0.258290 0.194947 -0.011305
0.076839 0.040871 0.079512
-0.289513 -0.394689 0.073503
0.027380 0.028546 -0.097876
-0.330852 -0.367414 0.061435
0.060720 0.232975 0.045051
-0.202982 -0.141728 -0.010264
-0.248145 -0.203939 0.013231
0.064422 0.020822 0.074861
0.011537 0.137981 0.071913
0.280122 0.404994 -0.108625
-0.251037 -0.220416 -0.056244
-0.012711 -0.013299 0.098433
-0.143570 -0.267130 -0.078090
-0.334229 -0.290489 -0.032797
0.312887 0.383982 0.099335
0.215089 0.327565 -0.069945
0.130951 0.181338 -0.071989
-0.136963 -0.051893 -0.018614
-0.005991 -0.101371 0.060666
0.032741 0.186270 0.037796
0.068987 -0.021938 -0.041281
0.118623 0.036067 -0.057519
0.217588 0.451839 -0.072718
-0.103203 -0.031617 -0.068551
-0.247099 -0.389902 0.048369
0.135126 0.333700 0.022705
0.170175 0.092689 -0.009363
0.317854 0.377095 0.140847
-0.007791 0.058473 0.086083
-0.138404 -0.122179 0.065351
0.378256 0.307753 -0.021030
0.310193 0.309493 -0.065665
0.068681 0.168437 0.102312
0.052211 0.118606 0.088265
0.073339 -0.055069 -0.037287
-0.171186 -0.159631 -0.077643
-0.284375 -0.407554 -0.067819
-0.145958 -0.065758 0.014070
0.372253 0.302827 0.075896
0.191731 0.429769 0.011417
-0.324258 -0.317294 0.031014
0.110994 0.296616 0.021801
0.264767 0.279294 0.104903
-0.140373 -0.059492 0.001724
-0.035609 -0.100562 -0.084761
-0.253941 -0.290352 0.051447
0.038679 -0.085267 -0.027402
0.219244 0.181368 0.086659
0.093522 0.201488 0.082685
0.239964 0.290146 -0.055688
-0.176972 -0.243397 0.059790
-0.112675 -0.295506 -0.051312
-0.268894 -0.263914 0.035700
0.230943 0.415000 0.153721
0.191747 0.143911 0.089948
-0.288059 -0.268248 0.006899
0.276553 0.225899 -0.007064
-0.096181 -0.248434 -0.076294
-0.146456 -0.071084 -0.027537
0.141248 0.177270 -0.085204
-0.151430 -0.075373 -0.047523
0.066411 -0.027716 -0.039349
-0.274528 -0.420619 0.006864
0.318484 0.389637 -0.105147
-0.157326 -0.276268 -0.085222
-0.062826 -0.139870 -0.087926
-0.249181 -0.215001 0.012306
-0.218505 -0.201719 0.040050
0.359832 0.350802 0.078334
-0.179454 -0.311528 -0.081021
0.293461 0.333478 0.118915
0.098447 0.144251 0.110873
0.253937 0.188585 -0.011841
-0.083813 0.038252 -0.042798
0.187101 0.354152 0.105168
0.083289 -0.046391 0.002022
-0.044670 -0.170959 -0.050199
0.150007 0.328325 0.059379
-0.057183 0.026348 -0.073230
-0.058748 0.043601 0.037725
-0.137098 -0.280734 0.034930
0.181094 0.207665 0.098783
0.045799 -0.067300 -0.036310
0.321250 0.348325 0.158862
-0.211409 -0.340381 -0.102085
0.156288 0.343627 -0.001179
0.242941 0.205761 -0.051879
0.288141 0.262389 -0.015740
0.106251 0.280285 -0.012039
0.186365 0.319742 0.100883
0.299978 0.406606 -0.069783
0.079976 0.242952 0.031385
0.223875 0.164758 0.058145
-0.182063 -0.374018 -0.045698
0.162700 0.328280 -0.040676
-0.139256 -0.047729 -0.014922
-0.006600 0.148016 -0.032159
0.067114 0.251111 0.009568
-0.275131 -0.246458 -0.030893
-0.081960 -0.234109 0.010678
-0.269730 -0.352989 -0.115588
-0.130839 -0.281244 0.021710
0.093081 0.292512 0.018431
0.096380 0.023247 0.077601
0.180231 0.072499 0.014841
0.298034 0.302420 -0.063695
0.157142 0.048537 0.015139
-0.337888 -0.328938 -0.081709
-0.261447 -0.212470 -0.025348
0.248669 0.430378 0.115037
0.227032 0.233225 -0.051607
-0.322252 -0.314140 0.036086
-0.142517 -0.280786 0.042774
0.201987 0.465879 0.103449
-0.022160 -0.077757 -0.081784
0.007461 -0.126141 -0.010154
-0.331837 -0.349566 0.048138
-0.172945 -0.107115 -0.037919
0.034826 0.214666 0.012455
-0.020038 -0.161857 -0.033396
-0.109297 -0.030085 0.032560
0.128665 0.108730 0.104470
-0.204186 -0.200676 0.042427
-0.239411 -0.426389 -0.110397
0.022578 0.148474 -0.065158
-0.160733 -0.078666 -0.006805
0.154967 0.308081 -0.049400
-0.008529 -0.068566 0.076442
-0.073287 -0.094787 -0.089396
0.352455 0.354026 0.107418
-0.138217 -0.172685 0.066925
0.127843 0.169303 -0.083138
0.166015 0.252660 0.098784
0.118501 -0.000520 0.005675
-0.250993 -0.196555 0.016102
-0.178548 -0.185401 -0.086028
-0.113090 -0.266503 -0.080074
-0.276526 -0.377842 -0.126764
-0.064868 -0.187893 0.047080
0.042646 0.197063 0.019046
0.072657 0.186506 -0.056285
-0.117827 -0.050495 0.038835
-0.243299 -0.190712 -0.052146
-0.277398 -0.421280 0.043001
-0.073888 -0.145196 -0.085117
0.119726 -0.007404 0.008124
-0.060657 -0.037922 -0.087935
0.063130 -0.020822 0.073639
-0.113528 -0.250287 0.034525
-0.090299 -0.236579 -0.074082
0.221979 0.319489 0.124367
0.195574 0.418779 0.065090
0.023329 0.167172 0.028727
0.116443 0.323484 0.020830
0.265274 0.282499 -0.066709
-0.009133 0.147723 0.041605
-0.302174 -0.395018 -0.059276
-0.021605 0.104428 -0.011936
-0.321197 -0.378014 0.066015
0.090063 0.056393 -0.083697
-0.094845 -0.057415 0.061364
-0.116283 -0.019472 0.029321
-0.196760 -0.400186 0.026434
-0.165244 -0.088701 -0.006021
-0.147126 -0.192958 -0.093167
-0.227932 -0.339656 -0.109859
0.149080 0.052165 0.046186
0.089936 0.083176 -0.071259
-0.333160 -0.373017 -0.046714
-0.003015 0.150081 -0.035754
-0.064501 -0.038017 -0.094551
0.270806 0.421433 0.018294
0.243518 0.373166 -0.073038
0.029067 0.185232 0.039602
0.332575 0.319455 0.102470
0.173627 0.411646 0.010045
0.006565 0.076888 -0.066368
-0.166193 -0.085388 -0.044378
0.291151 0.355872 0.151441
-0.204034 -0.445851 -0.050444
-0.094511 -0.129101 -0.097077
0.165075 0.095303 -0.054224
-0.364906 -0.346804 -0.064691
-0.113539 -0.220309 -0.081414
0.295018 0.257083 0.047066
-0.317528 -0.329441 0.037490
-0.081872 0.026758 -0.011942
0.103470 0.005591 -0.010778
0.157491 0.282531 0.105542
0.120666 0.231985 0.098784
-0.151411 -0.113730 -0.076386
-0.135520 -0.077099 -0.054226
-0.238616 -0.350968 -0.116695
0.029627 0.111244 -0.063123
0.076824 0.126118 0.091284
0.204089 0.328525 0.119846
0.367253 0.355471 -0.053410
0.089066 0.121037 -0.079518
0.242965 0.168303 0.018381
0.145545 0.228145 0.096602
0.309062 0.368257 -0.101457
-0.002422 0.108773 0.054993
0.186404 0.364552 0.099931
0.008804 0.011058 -0.087978
0.262369 0.326200 -0.076931
0.189380 0.182881 0.085910
-0.283921 -0.233275 -0.023477
0.245567 0.226743 -0.042899
-0.033909 0.106437 0.041841
0.104623 0.296774 0.057630
0.147088 0.340480 0.027037
-0.202686 -0.443596 -0.048224
-0.080235 -0.037782 0.063756
-0.105892 -0.144715 -0.098494
-0.188331 -0.243312 0.072168
0.220425 0.381960 -0.070653
0.170511 0.176221 0.111533
-0.024554 0.028664 -0.091955
-0.113801 -0.153701 0.074887
0.162530 0.393920 0.051893
-0.019884 0.106951 0.021400
0.248961 0.346937 0.132345
0.258791 0.428192 -0.099807
-0.112334 -0.287850 -0.050776
-0.050197 0.051875 0.064016
0.377959 0.300367 0.038364
0.163878 0.298274 -0.047395
0.390879 0.333633 0.002593
0.113720 0.000389 0.011358
-0.121658 -0.262045 0.029739
0.028017 0.182048 0.038726
-0.259369 -0.247543 -0.086966
-0.316362 -0.355603 0.053506
0.140930 0.240088 -0.074041
-0.194014 -0.411910 -0.017018
0.024237 0.043969 0.101917
-0.301526 -0.403251 0.041163
0.150276 0.322706 -0.048648
0.196307 0.451502 0.114779
0.237486 0.215120 -0.043904
0.334123 0.308723 -0.025476
0.016969 -0.049479 -0.070788
0.158870 0.075336 -0.024988
0.176726 0.398595 -0.034539
0.227077 0.189716 -0.049429
0.168713 0.285269 -0.066449
0.383073 0.299811 0.024251
-0.285475 -0.288912 -0.067035
0.160639 0.351993 0.006690
0.016666 0.023103 0.099197
0.340865 0.279517 0.058770
-0.167301 -0.064748 -0.012311
0.277923 0.408629 0.115834
0.066046 0.017854 0.072559
0.146832 0.157018 -0.065941
-0.268289 -0.210777 -0.019772
-0.248686 -0.199308 -0.058723
0.006139 0.066757 -0.073826
0.269064 0.227206 0.010415
-0.137088 -0.160755 0.062105
-0.088728 -0.246679 -0.047465
-0.203241 -0.318746 -0.093485
0.000216 -0.057771 0.081454
0.162169 0.408904 0.022456
-0.000912 0.133724 0.042533
-0.065052 -0.118661 -0.083926
0.156656 0.152066 0.098308
0.268181 0.428441 -0.047278
0.198336 0.207509 0.113153
0.104926 0.249693 -0.044028
-0.079716 0.035791 0.001936
0.295077 0.397512 0.095106
-0.113832 -0.207969 0.062901
0.139043 0.033143 -0.030311
-0.215651 -0.228026 0.064252
0.180615 0.131945 0.061300
-0.038310 0.013587 -0.071012
-0.231301 -0.381440 -0.106323
0.120252 0.280352 0.089138
0.275203 0.259730 0.089371
0.153753 0.072483 -0.025868
-0.081901 0.014601 -0.042065
-0.071648 0.053014 0.001050
0.214322 0.181204 -0.047024
0.117477 0.000212 -0.031353
-0.005590 0.104766 0.053516
-0.245601 -0.396301 -0.116050
-0.032524 -0.156045 0.032881
-0.226693 -0.447925 -0.070561
0.234654 0.408243 0.155055
0.221731 0.141986 0.055774
0.366271 0.357389 -0.068836
-0.100851 -0.235914 0.043985
-0.093678 0.023615 0.028747
0.322787 0.268579 0.053291
0.119123 0.254219 0.080677
0.057722 0.016707 0.092768
0.297341 0.355170 0.158302
-0.313416 -0.300928 -0.088545
0.028116 -0.032350 -0.090882
-0.302518 -0.278865 0.001207
0.036127 0.006419 0.084654
0.097413 0.235254 -0.057399
0.042839 0.218612 0.007105
0.163009 0.221051 0.113920
0.239262 0.402245 -0.068913
-0.071596 0.049448 0.035735
0.040642 0.010262 0.086001
0.196672 0.461402 -0.046776
