-0.054997 -0.299371 0.267628
-0.244950 0.043817 -0.429898
-0.039188 -0.178233 -0.346282
0.179249 -0.166847 -0.153914
-0.231332 -0.072417 0.294222
-0.196948 -0.272768 -0.472008
-0.155379 -0.412281 0.323550
0.324216 0.364523 0.202597
-0.071616 -0.536399 -0.038059
0.311235 0.141493 -0.356042
0.303877 0.017755 0.055644
0.143547 -0.132916 0.174995
-0.179225 -0.479005 0.160903
-0.092021 0.071499 -0.377666
0.224460 0.102031 0.432135
0.407593 0.252501 -0.400745
0.378269 0.116881 0.100340
0.153839 -0.297538 -0.202097
-0.054825 -0.333353 0.310797
0.343111 0.178200 0.396616
0.297763 0.123090 0.163160
0.213977 0.035429 0.371106
-0.323602 0.085348 -0.375634
-0.075317 -0.510161 -0.234259
-0.208457 0.331681 -0.058600
0.062599 -0.335477 -0.296808
0.428472 0.071193 -0.119149
-0.220387 0.308602 -0.198155
-0.125327 -0.171534 -0.467359
0.490872 0.175744 -0.288604
0.380167 0.076492 0.072801
-0.307852 0.018937 -0.145548
0.133551 0.240543 -0.429686
-0.438486 0.023902 -0.349401
0.462096 0.110451 0.014414
0.041989 0.273149 -0.371375
0.120605 -0.216570 0.385096
-0.335434 -0.380750 -0.275630
0.187035 -0.099430 -0.260540
0.242861 -0.126193 -0.276033
0.522177 0.167514 -0.005630
-0.529385 -0.068395 0.142236
-0.084334 0.099404 0.251870
-0.239001 0.301582 -0.016391
0.057409 0.467483 0.068455
0.114368 0.033352 0.168669
0.299186 0.028031 0.121594
-0.282246 0.166773 -0.167983
0.426870 0.044020 -0.135913
0.133059 0.554096 0.059597
0.244300 0.139706 0.371043
-0.125444 -0.073312 -0.468152
0.096253 0.580438 -0.002030
0.389448 0.137782 0.212882
0.130419 0.417271 0.149373
0.320182 0.082815 0.323108
-0.193735 -0.294131 0.404676
-0.106971 0.411515 -0.085298
0.451296 0.219151 -0.359424
0.192312 -0.113568 0.040026
-0.366965 -0.346207 -0.214556
0.094773 0.177079 -0.398868
0.067655 -0.416571 -0.156655
-0.407427 0.124120 0.091250
-0.199135 0.173599 0.189299
-0.062280 0.039416 -0.459858
0.080109 -0.263571 0.398586
-0.099907 -0.527816 0.032634
-0.058154 -0.335005 0.263681
0.409344 0.107998 0.350609
-0.090548 0.350035 -0.000138
-0.084949 0.014590 -0.462106
0.087504 -0.406745 -0.057860
-0.298944 0.202948 0.091941
0.087310 -0.113139 0.387263
0.137537 -0.154826 -0.366550
0.468894 0.111331 -0.096109
0.087986 -0.281757 0.135603
0.217616 0.183116 0.204213
0.318394 0.158442 0.204218
-0.578532 -0.008894 -0.157148
0.480277 0.151800 -0.230764
0.319634 0.006287 0.089280
0.173390 0.166153 -0.428774
-0.407471 -0.299426 -0.098880
0.231077 0.087754 0.367421
-0.079145 -0.388378 0.405925
0.018289 -0.207254 0.240620
0.156427 -0.003658 0.474454
-0.138830 0.191742 -0.315279
-0.175189 -0.486829 0.149775
-0.580173 -0.126440 -0.087979
-0.238541 -0.179674 0.314942
0.179417 0.057534 0.155058
0.253477 0.439556 0.187256
-0.182413 -0.513972 -0.281367
-0.520502 -0.178328 0.051522
0.265263 0.019581 0.148299
0.435168 0.177735 0.115469
-0.193190 -0.422936 0.278405
0.273613 -0.023460 0.426742
0.303441 0.171377 -0.394367
0.242105 0.078266 0.138940
0.222396 0.057423 -0.352268
0.034929 -0.472440 -0.080277
-0.228600 -0.474953 -0.062122
-0.094275 -0.529685 -0.207238
-0.076482 0.094213 0.252834
-0.204827 -0.081712 -0.362860
-0.172222 -0.103983 0.055521
0.079014 -0.066869 0.404075
-0.005702 -0.298778 0.363032
-0.266216 0.145980 0.181103
-0.451347 -0.254410 -0.404413
0.056710 0.104396 0.241201
-0.212889 -0.501429 -0.268857
-0.396203 -0.307503 -0.044889
-0.121421 0.109334 -0.360075
0.120910 -0.193497 -0.223542
-0.118832 -0.379593 0.400711
-0.151941 -0.325286 -0.447359
0.007178 -0.274947 0.036566
-0.346457 -0.350724 0.058352
-0.293446 -0.398902 0.138709
-0.304952 0.217376 -0.259650
-0.172777 -0.055653 -0.378599
-0.043334 0.259908 0.126432
0.330638 0.250277 0.303493
0.300952 0.311690 -0.441285
-0.107177 -0.353165 -0.417830
0.213886 -0.133814 0.107901
0.086208 -0.365944 -0.234880
-0.543774 0.022593 0.059184
0.294884 0.179124 -0.400599
0.155463 -0.163331 -0.220770
0.096090 0.195270 -0.436955
-0.065757 -0.185800 0.456952
-0.330768 0.080772 -0.227624
0.350247 0.242556 0.280479
-0.229861 -0.033130 0.155433
0.397921 0.126396 0.253442
0.520509 0.156092 -0.227630
0.146357 -0.272399 -0.258110
-0.237088 -0.478555 -0.267592
0.330197 0.059138 0.110305
-0.106459 0.278793 -0.351723
-0.279875 0.052393 -0.302910
-0.551818 -0.156067 -0.108264
0.471741 0.122596 -0.265357
-0.203527 0.254236 -0.154958
-0.125460 0.339393 -0.282606
-0.428501 -0.107390 -0.425101
-0.383878 0.165639 -0.231342
0.081989 -0.193148 0.075487
-0.528572 -0.188660 -0.266877
-0.241784 0.277650 -0.234991
0.369168 -0.020758 -0.034915
0.222441 -0.060343 0.142914
-0.056861 -0.214247 0.115134
-0.260274 0.202168 -0.081286
0.158290 -0.142721 0.451144
-0.269688 -0.332883 0.321005
-0.532852 0.066726 -0.168016
-0.144452 -0.150638 -0.348740
0.409414 0.121173 0.353534
0.267014 0.062870 0.347394
-0.011422 -0.123188 0.431854
0.391403 0.119095 0.251861
-0.214506 -0.264253 -0.473891
-0.056265 -0.360836 -0.390503
-0.038328 0.414516 -0.029929
-0.079623 -0.064304 -0.463543
-0.074059 -0.042300 0.281303
-0.338927 -0.374366 -0.220052
0.278638 0.150488 0.148363
-0.156949 -0.407439 -0.397769
-0.406054 -0.077001 0.252274
0.040280 0.085072 -0.447282
-0.344432 0.058614 -0.094835
-0.025805 -0.376067 0.191618
-0.092307 -0.467335 0.139421
0.317519 -0.043536 0.051712
-0.338886 0.196860 -0.245200
0.208717 -0.121751 -0.320487
0.137765 -0.001661 -0.357969
0.436872 0.060888 -0.161902
0.397377 0.215652 -0.356380
-0.351404 0.073439 -0.366842
-0.558464 -0.142698 0.009225
-0.496686 0.047734 -0.281900
-0.183607 -0.103437 -0.123041
0.123114 -0.362292 -0.095762
-0.202692 -0.250838 -0.474131
-0.283831 0.015209 0.106383
-0.114896 -0.336353 0.460561
0.399344 0.065295 -0.259142
0.020067 -0.037683 0.258173
-0.225318 -0.482123 -0.128503
-0.069203 0.081254 0.255289
-0.159057 0.352444 0.011026
0.091335 0.086920 -0.391686
-0.000937 -0.139120 0.257936
0.433359 0.220593 0.104052
-0.261373 -0.417551 -0.397221
-0.425083 0.054197 0.160580
-0.482480 -0.229612 -0.179694
0.223060 -0.124988 -0.300649
-0.112793 0.276830 0.062233
0.074643 -0.362974 0.077326
-0.149926 -0.546796 -0.186528
-0.086631 0.281538 0.083040
-0.064355 -0.180798 -0.352987
-0.406131 0.143351 -0.240767
0.102279 -0.251792 -0.105604
0.306492 0.007034 0.406928
0.285212 0.324225 -0.442482
0.287879 0.031220 0.134089
-0.242331 -0.382826 -0.423730
-0.586893 -0.090656 0.057397
0.043878 -0.106967 -0.346631
-0.039905 -0.262619 0.378245
-0.091768 -0.492392 -0.274479
0.185134 -0.283262 -0.104393
0.391172 0.143324 0.080674
-0.463011 -0.090713 -0.399072
0.389617 0.185593 -0.345290
-0.580016 -0.128328 -0.113074
-0.214896 -0.071627 -0.113286
-0.208568 0.255226 -0.084611
-0.144074 -0.471005 -0.336979
0.049528 -0.407137 -0.242245
0.044177 0.532350 -0.023562
0.408260 0.053825 -0.134739
-0.218969 -0.061787 0.291976
0.025609 -0.012067 -0.383394
-0.230772 -0.402772 0.281708
0.364984 -0.026199 -0.034086
-0.303295 0.130543 -0.199167
-0.161207 0.282496 -0.313539
0.091333 0.563250 -0.108935
-0.204473 0.130777 0.211421
0.191150 0.293430 -0.405006
0.178679 -0.148722 0.376655
0.209890 0.186567 0.206653
-0.221366 -0.025175 -0.457245
-0.294856 0.153057 -0.016247
0.041578 0.448485 -0.270532
0.283214 0.371464 0.205176
-0.367521 -0.300213 -0.436124
0.374065 0.044427 -0.220836
-0.259470 0.101908 -0.283935
0.106333 -0.281797 -0.296450
-0.454866 0.051484 0.137342
0.342326 0.283327 -0.402761
-0.238250 -0.271146 0.318652
0.066970 0.539425 -0.129273
-0.377555 0.173638 0.053974
-0.352491 0.031625 0.219940
-0.287906 -0.317451 -0.448930
-0.367862 0.146088 -0.290938
0.259115 0.034426 0.437475
-0.097837 -0.397062 0.215282
0.093804 -0.026360 0.422733
0.344678 0.138202 -0.363529
-0.091898 0.123107 0.243682
0.205897 0.338051 0.172018
-0.049559 0.065389 0.185982
-0.114832 0.393769 -0.020102
-0.407431 -0.305132 -0.197452
0.152888 -0.004363 0.207770
-0.341545 -0.359898 -0.012407
-0.450239 -0.117880 -0.412167
-0.200987 -0.076750 0.038628
0.204876 -0.146206 -0.056854
0.277503 -0.067978 -0.286082
-0.229402 -0.449841 0.198024
0.240571 0.419746 -0.399379
0.155867 -0.323270 -0.072720
-0.283573 0.017298 0.248185
0.111002 -0.138845 -0.389072
0.094982 -0.168003 0.199229
-0.043929 -0.012321 0.191854
-0.138234 0.299099 0.007581
-0.175674 0.336249 0.020446
-0.406185 0.165397 -0.186779
-0.087806 -0.138497 0.183499
0.350729 -0.014645 0.025706
-0.174780 -0.119585 -0.254591
-0.233851 0.143804 0.079065
0.150050 -0.080545 0.105232
-0.258252 -0.445872 -0.067290
0.047974 -0.145105 -0.417997
-0.518708 -0.198448 -0.265684
-0.067865 -0.052124 0.193314
-0.235942 -0.435452 -0.383078
-0.364077 -0.336330 0.008627
-0.349452 -0.352209 -0.015040
0.125228 0.522724 0.046032
-0.489342 0.098404 0.021114
0.185318 0.379598 -0.419507
-0.272790 -0.013123 -0.099493
0.210204 -0.096035 0.133749
-0.035800 -0.149151 -0.453380
-0.126191 -0.153849 -0.017522
-0.266883 -0.012390 0.019195
0.384483 0.124670 -0.302648
-0.391750 -0.311035 -0.029335
-0.333122 -0.357498 0.165138
-0.155535 -0.219449 0.327002
-0.211758 0.021245 -0.444642
0.012508 -0.266483 -0.253364
-0.042470 -0.052383 -0.459664
-0.061313 -0.216365 0.398300
0.129760 0.258470 0.176115
0.157045 0.363778 -0.385434
0.251713 -0.096154 -0.152258
-0.019000 -0.415300 -0.316105
0.104851 -0.014424 0.424202
0.317424 0.128307 -0.372009
0.350269 0.132662 0.202971
-0.020822 0.478818 -0.142708
0.343603 0.357642 0.193022
-0.000446 -0.304267 0.363206
-0.149891 0.261308 0.040503
0.125538 0.306830 -0.412568
0.025420 -0.301273 -0.090814
-0.243897 -0.286830 0.325326
0.090095 0.418840 0.130970
0.375901 0.192042 -0.354001
0.244524 -0.198324 -0.136744
0.099713 -0.213629 0.032122
-0.082661 -0.370991 0.295662
0.010667 0.357596 0.141256
-0.354430 0.075515 -0.086620
-0.226313 -0.094799 0.299800
0.275758 -0.156319 -0.138065
0.272431 -0.027869 0.114436
-0.530536 -0.172209 -0.019553
-0.241612 0.030386 0.148852
-0.254612 -0.067659 -0.463550
-0.001258 -0.500994 -0.038006
0.169897 -0.283550 -0.182979
-0.033247 0.248058 -0.401451
-0.073702 0.331419 0.121135
-0.082157 -0.537438 -0.129621
-0.021132 0.180411 -0.374073
-0.215429 -0.068726 -0.072010
0.027062 0.032485 0.187849
-0.183439 -0.105841 -0.160499
0.081767 0.537448 0.040753
-0.193159 0.236169 -0.219524
-0.262481 -0.249482 -0.475003
0.156081 -0.191211 -0.042868
-0.061688 -0.025524 0.276534
-0.072302 0.005475 0.270992
0.178353 -0.149663 -0.208769
0.280843 -0.084651 0.066116
0.145944 -0.054126 0.202786
-0.174812 -0.110376 -0.093769
0.011098 -0.233808 0.373343
-0.454817 -0.060601 -0.397471
0.401707 0.087825 0.336304
0.349197 0.062131 -0.271011
-0.480064 -0.206934 0.189431
0.420037 0.090015 -0.221236
-0.244363 0.189490 0.154944
-0.212936 -0.241472 0.324651
-0.249460 0.300882 -0.056267
0.342629 0.274162 -0.433352
0.173334 -0.284070 -0.163574
-0.185778 -0.084498 0.126048
0.090134 0.159171 -0.439380
0.053026 0.562516 -0.076765
0.020672 0.341516 0.154448
-0.327140 -0.023073 -0.433122
0.325434 0.017713 -0.246384
-0.327680 -0.059605 0.275739
-0.125029 0.382428 -0.195254
-0.442074 -0.002065 -0.368350
-0.166118 0.363752 -0.062567
0.038055 0.500614 -0.243035
0.023289 -0.365690 0.144175
0.279915 0.136610 0.342500
-0.153965 0.299434 -0.032989
-0.071737 -0.103310 0.289062
-0.563893 -0.142416 -0.084363
-0.031500 -0.248055 -0.010496
0.084013 -0.033600 0.443637
0.223948 -0.198920 0.014154
0.170872 0.266857 0.176941
-0.005923 0.399417 0.041865
-0.009799 -0.508628 -0.058190
-0.445764 -0.254658 0.016597
0.337879 0.107660 -0.326039
0.208853 -0.007076 0.179573
0.076514 -0.258435 -0.184235
-0.449895 -0.262923 -0.195655
-0.556148 -0.155952 -0.174585
0.157422 0.034340 0.404695
0.293281 0.110971 0.420263
-0.024613 -0.036062 0.189267
-0.011708 0.479053 -0.065367
0.136137 0.396440 0.137712
-0.548859 -0.133942 0.131468
0.064988 -0.244093 0.452472
0.153291 -0.165511 0.147125
0.010076 0.364144 0.092133
0.094305 -0.182652 0.191628
0.082568 0.336617 -0.368072
-0.250950 0.103803 0.101687
-0.298759 0.068945 -0.401859
-0.327798 0.240537 -0.159823
-0.014728 0.185110 -0.428449
0.132327 0.081573 -0.388664
0.230621 0.062769 0.138733
0.164703 -0.091531 0.373153
-0.114537 -0.258786 -0.453808
-0.130834 0.397300 -0.109170
-0.051420 -0.454859 0.134986
0.218709 0.080473 0.374102
-0.241913 -0.473433 -0.261613
-0.472428 -0.217097 0.187502
-0.333644 0.066590 -0.384040
0.038748 -0.297786 -0.150203
0.214436 0.023255 -0.339587
0.030725 0.161576 -0.441728
0.236132 0.436410 0.192566
-0.193615 0.008517 -0.452400
0.053623 -0.271190 -0.203526
0.052891 -0.137567 0.480790
-0.170741 -0.285363 -0.466368
-0.155022 -0.423870 0.215121
-0.062041 -0.495367 -0.251940
-0.468384 0.028693 0.151268
0.183924 -0.226284 0.064639
-0.546551 -0.110839 0.140831
-0.415731 0.124185 0.083705
0.089292 0.559128 -0.099255
-0.038185 -0.236686 -0.426573
0.037677 -0.181693 -0.410170
-0.265803 -0.449274 -0.255309
-0.136928 -0.292659 -0.453070
0.038683 0.508936 -0.143931
-0.403306 -0.306345 -0.147403
0.169901 -0.158008 0.378020
-0.583831 -0.002999 -0.076423
-0.302826 -0.408124 -0.181210
0.166308 -0.047526 0.193599
0.268195 -0.172729 -0.112671
0.189281 0.249910 0.203889
0.024679 -0.478148 -0.029706
-0.241700 0.292578 -0.197580
0.063299 -0.277622 -0.348405
-0.149825 -0.215427 0.321651
-0.310374 -0.219577 0.294054
0.248078 0.141141 -0.379310
0.100695 0.497157 -0.332438
-0.292445 -0.069238 -0.456134
0.123701 -0.007201 -0.424338
-0.031272 -0.225546 -0.427216
0.521012 0.124736 -0.051961
-0.014041 0.313532 -0.326978
0.044110 -0.385945 0.103019
-0.564219 0.039472 -0.083938
-0.186804 -0.175251 0.318809
0.195393 0.156811 0.210394
-0.244479 -0.467054 -0.195361
-0.003297 -0.327565 -0.373439
-0.187558 -0.456938 0.190967
0.145080 -0.185475 -0.003963
0.296405 -0.115402 -0.189942
0.141862 0.293294 -0.419605
0.073371 0.458213 0.060836
-0.305398 0.246060 0.009581
-0.512827 -0.031101 0.143080
-0.531916 -0.042188 0.122680
-0.210389 -0.057325 -0.368273
0.112047 0.569780 0.030383
0.108792 0.099735 -0.438281
0.487064 0.128283 -0.100318
0.360929 0.038463 0.004622
0.406091 0.168928 0.309350
0.104193 -0.057895 0.398952
0.300898 0.275320 0.171205
0.339004 0.011611 -0.004859
0.052542 -0.280758 -0.188961
-0.526908 -0.188136 -0.226521
0.342233 0.023224 0.076761
-0.568102 -0.012946 0.036595
-0.324180 0.044654 0.011045
-0.367851 0.126553 -0.310770
0.127640 -0.202481 0.378300
-0.291154 0.008488 -0.035102
-0.327116 -0.365795 0.126454
-0.004197 0.250259 0.198952
0.080246 -0.123179 0.221186
-0.021099 -0.452189 0.114622
0.177188 -0.086283 0.170401
0.042034 -0.199119 0.472080
-0.193188 0.146942 -0.403240
0.052484 0.318849 0.175748
-0.142370 0.082011 0.252969
0.201124 0.239284 0.179647
-0.071101 -0.227193 0.396685
0.181945 -0.065502 0.091302
-0.514792 -0.042002 0.146944
-0.347998 0.139828 0.125084
-0.375628 0.078478 -0.346315
-0.247384 -0.201136 -0.479406
-0.490379 -0.217231 -0.103367
0.026156 0.522645 -0.081068
-0.278458 -0.036227 -0.448585
-0.524441 -0.166659 0.151871
0.147469 -0.210959 0.125054
0.144325 -0.116487 0.371856
-0.504977 0.067827 0.066745
-0.369337 0.183389 0.047315
-0.398438 -0.319084 -0.284711
0.365476 0.126417 -0.346916
-0.554991 -0.086356 -0.291696
0.037532 0.471218 -0.235044
-0.022981 -0.176000 0.264262
-0.126634 0.118300 -0.430174
0.010910 -0.134545 0.476512
0.021602 -0.300902 -0.099883
0.408442 0.050703 -0.114691
-0.116628 0.309068 -0.318930
-0.033226 -0.084369 -0.376813
0.223053 0.086092 0.148584
0.047962 0.566728 -0.146143
0.202174 -0.261791 -0.055865
0.188208 0.234984 0.206725
0.394139 0.109785 0.366257
-0.211060 -0.149489 -0.476317
-0.078767 0.281097 0.160389
-0.049536 0.161890 -0.429702
0.036748 -0.298265 -0.358857
0.278018 -0.151112 -0.040404
0.297565 -0.038335 -0.199269
-0.240303 -0.454150 0.096083
-0.307279 -0.237638 -0.471455
-0.013252 0.154977 -0.381977
-0.002477 -0.482845 -0.210428
0.233110 -0.110894 -0.168563
-0.221603 -0.317365 -0.461543
-0.007186 0.243995 -0.408895
-0.493318 0.098198 0.005851
-0.304058 0.049005 -0.283600
-0.430438 -0.269957 0.015219
0.024981 -0.111699 0.409499
-0.461955 -0.252175 -0.216368
-0.152408 -0.129161 -0.038747
-0.213667 -0.076105 -0.168655
-0.427496 -0.035870 -0.403224
-0.051362 -0.378763 0.374376
0.226436 -0.233080 -0.087112
-0.535201 -0.169765 -0.058950
0.482879 0.149731 -0.288972
-0.388416 -0.095131 -0.441526
0.270970 0.193985 0.357854
0.103825 -0.218016 0.445323
0.380019 0.018922 -0.236117
0.205060 -0.238963 -0.183204
-0.250165 -0.458557 -0.146908
0.227547 0.113240 -0.410980
0.427932 0.103530 -0.273519
-0.527860 0.041596 -0.233524
0.141852 0.087736 -0.433664
-0.057212 -0.357812 0.320178
-0.195665 0.037172 0.164226
0.025731 0.090489 -0.393317
0.252805 -0.029153 0.061368
0.532349 0.154420 -0.077004
0.331316 -0.005903 -0.200632
-0.327361 0.037168 -0.162330
-0.088841 0.084466 -0.448400
0.056599 0.422152 0.080479
0.131429 -0.118344 -0.295244
-0.563987 0.003894 0.021346
0.377409 0.027388 0.032296
0.190026 -0.280373 -0.078852
-0.552720 -0.148435 0.009365
-0.058264 0.410787 -0.104828
0.064020 0.264715 0.164942
-0.335211 -0.356661 0.142648
0.182965 -0.028057 0.380232
0.220985 -0.234771 -0.115717
0.312724 0.212148 -0.409502
0.203539 0.225404 -0.401704
-0.470120 -0.238889 -0.128006
0.053712 0.141406 -0.395528
0.320541 0.099417 0.140353
-0.193614 -0.300892 0.406914
-0.122025 0.319632 0.096329
0.091202 0.292551 -0.410974
-0.448600 0.074683 -0.297319
0.225969 0.027530 0.180058
0.291294 0.363149 0.206415
0.009911 -0.125701 0.409542
-0.204151 -0.019043 0.180126
0.148751 0.472695 -0.341965
0.045341 -0.338525 -0.313747
0.292265 -0.052602 -0.042364
0.152223 0.246659 -0.428503
-0.042659 -0.284340 -0.412048
-0.235482 -0.449719 -0.369773
-0.189871 -0.392963 -0.411770
0.368293 -0.009061 -0.009926
0.284351 -0.025069 0.031076
-0.312406 -0.309463 0.281341
0.237857 -0.121816 -0.285835
0.107485 -0.327539 0.064833
-0.341911 -0.283674 0.275865
0.323409 0.085017 -0.352095
0.138502 0.022495 0.440648
0.142529 -0.179160 0.373441
0.124149 0.422356 -0.352927
0.187817 -0.239011 0.032866
0.270113 -0.084793 -0.116775
0.221501 -0.198058 0.022429
-0.220612 0.226571 -0.011909
0.197504 -0.096691 0.053342
-0.310743 0.019650 -0.185324
0.161399 0.008987 0.147530
0.008607 -0.092650 0.258192
-0.337976 -0.340031 0.249347
-0.014451 0.454728 -0.102255
-0.356784 -0.331491 0.193656
0.001916 -0.114062 0.446893
0.386242 0.069671 0.337187
-0.019176 0.443552 -0.071336
0.266628 -0.147387 -0.211401
-0.207665 -0.175476 0.318016
-0.505185 -0.191788 0.083312
0.095293 0.412938 -0.341004
0.248618 -0.200951 -0.100486
-0.028142 -0.501639 0.008010
0.052928 0.300610 0.146899
-0.029052 0.368005 -0.274560
-0.151099 -0.530325 -0.243981
-0.518491 0.096043 -0.101306
0.005845 -0.479831 -0.195156
0.199919 0.043894 0.143771
0.182289 -0.266699 -0.007457
0.271936 0.174227 0.396122
-0.352839 -0.008705 0.241416
0.393966 -0.001657 -0.070719
0.160860 0.007535 0.470582
0.474154 0.083951 -0.087395
0.019923 -0.428630 0.087644
0.084374 -0.201192 0.067002
0.049127 0.336376 -0.353896
-0.526678 -0.122854 0.172707
0.163391 0.135480 -0.393849
-0.183197 0.243971 0.022731
-0.266869 0.096781 -0.281695
0.016735 0.516868 -0.126194
-0.138989 0.325937 -0.088278
-0.326356 0.076005 0.047550
-0.143264 -0.126852 0.124155
0.081982 -0.190581 0.462509
-0.545313 -0.171652 -0.275981
0.255763 0.023050 0.157912
-0.125121 0.284349 0.041536
0.145381 0.485205 0.138752
0.129975 0.498445 -0.357688
-0.239940 0.217339 -0.053709
0.313816 0.338398 0.209376
-0.015257 0.320434 0.107787
-0.276440 0.181772 -0.326879
-0.145127 0.030104 0.270751
-0.134359 -0.094748 0.192656
0.436667 0.166868 -0.295627
-0.291637 -0.368113 0.274939
-0.051043 0.382889 0.010470
-0.328391 0.129634 -0.060931
0.233977 0.149800 0.194921
-0.260387 -0.383572 -0.423283
0.150684 0.081394 -0.431143
-0.078960 -0.361794 0.279113
0.015945 0.498873 -0.038523
0.053062 -0.240807 0.197519
-0.220604 -0.012892 -0.358365
-0.064475 -0.125689 -0.372328
-0.149053 -0.448436 0.183397
-0.275132 -0.097893 -0.468681
-0.423229 -0.289331 -0.194985
-0.525723 -0.173259 0.048990
-0.550051 0.054834 -0.145993
-0.160625 -0.230288 0.349674
0.378233 0.080678 0.040191
-0.254763 -0.112922 -0.474837
0.271307 -0.073413 -0.168685
0.322233 0.131811 0.280985
0.466141 0.085162 -0.058711
-0.109953 -0.070460 -0.466595
0.310470 -0.061762 -0.251338
-0.133919 -0.497078 -0.291903
-0.057679 0.403033 -0.063155
-0.301754 0.246162 -0.198251
-0.200069 -0.082392 -0.042964
-0.173667 0.241530 -0.341417
0.095751 -0.255523 -0.121226
0.002242 -0.284178 -0.066848
-0.171896 0.120551 -0.335672
0.133945 -0.316631 -0.219703
0.039176 0.437387 0.083815
-0.085836 -0.206849 -0.239347
0.094215 0.470795 0.105652
-0.191342 0.350508 -0.136584
0.155488 -0.173992 0.441843
-0.510346 -0.183238 0.139576
-0.458587 -0.256642 -0.235597
0.302261 -0.043347 -0.167415
-0.038518 0.420665 0.038622
0.245875 -0.012371 0.148408
0.441554 0.170869 -0.351073
0.107267 0.021635 -0.377838
0.388866 0.048486 0.038252
-0.325081 0.017031 -0.418783
-0.145160 0.297838 -0.195919
0.289046 0.362562 0.173882
-0.393334 -0.151585 -0.445344
0.076782 0.051512 0.243556
-0.408043 0.006056 0.215840
-0.162532 0.222608 -0.364784
0.053682 0.162400 -0.395241
0.393228 0.121600 0.090355
0.118085 -0.216326 -0.189205
0.040794 -0.110429 -0.432950
0.047214 -0.349371 0.130047
0.260628 -0.037395 0.045616
0.486930 0.107548 -0.034302
-0.491416 0.084033 -0.214319
0.270886 -0.093549 0.073316
0.317131 -0.029639 -0.163393
0.008264 -0.114725 0.420118
-0.096226 0.365391 -0.068931
0.251413 0.107075 0.181616
0.090775 0.336657 -0.371030
-0.204426 0.096699 0.229570
0.041733 -0.257569 -0.236106
0.010374 -0.207174 0.380997
-0.270544 0.244221 0.065415
-0.021124 -0.200337 -0.431247
-0.112075 -0.552867 -0.101594
-0.148093 0.370312 -0.181368
-0.180899 0.275760 -0.306650
-0.530882 -0.185143 -0.243424
-0.138643 -0.403307 0.248698
-0.305894 0.012003 -0.241528
0.009784 -0.180075 -0.326554
-0.026311 -0.348211 -0.377610
0.066813 -0.421526 -0.018553
0.141199 -0.265945 0.088495
-0.001304 0.292423 -0.347351
-0.044707 0.381363 0.083576
0.207276 0.467166 0.168895
-0.560745 -0.045896 -0.261154
-0.110294 0.256998 -0.291220
0.295427 0.207637 0.376762
0.115396 0.095272 0.180877
-0.016026 -0.320686 0.223211
0.485229 0.109274 -0.226519
0.184537 0.200579 0.212185
0.081797 0.182066 0.180912
0.123008 0.564859 0.041357
-0.051183 0.235930 0.194566
0.182740 0.343004 -0.420097
-0.196436 0.084781 -0.338563
-0.341636 0.112114 -0.046380
-0.066151 0.391161 0.052997
-0.300032 -0.409996 -0.165258
-0.328455 -0.155272 0.298905
-0.120420 -0.520138 0.079241
0.238191 0.143192 0.192352
0.088843 0.548810 -0.052745
0.241051 0.294896 -0.406896
-0.134496 0.222729 0.179269
0.069590 -0.048482 -0.437289
-0.441175 -0.266286 -0.104069
0.337388 0.000061 -0.198843
-0.068954 -0.066416 -0.381502
-0.368274 0.168548 0.071812
-0.604976 -0.100576 -0.120950
0.188366 -0.163534 -0.307993
-0.012338 -0.256207 0.473565
-0.223585 -0.319799 0.376762
-0.082529 -0.376524 0.308110
-0.442034 -0.160181 0.243202
0.133183 -0.340786 -0.134572
-0.061138 -0.229462 -0.202574
-0.501427 0.059005 -0.253658
0.055580 -0.372006 -0.270792
0.209068 0.248424 -0.423409
0.120615 0.089975 0.231715
0.014547 -0.298247 0.365490
0.053677 0.147789 -0.443579
-0.075165 -0.204773 -0.016694
-0.228534 -0.371349 -0.430939
0.226679 0.130003 0.195412
0.024161 -0.294232 0.368719
-0.301309 -0.381097 -0.420033
0.152277 0.357951 0.159739
0.034809 0.427168 0.054230
-0.125180 -0.498416 -0.284686
-0.384541 -0.000035 -0.403517
-0.227421 0.301114 -0.203535
-0.286081 -0.417054 -0.046533
0.005213 -0.034182 0.263950
-0.242664 -0.035377 0.037537
0.309642 -0.119486 -0.078571
0.404342 0.029037 -0.191762
-0.059110 -0.149017 -0.459058
-0.225775 -0.070856 -0.298456
-0.047871 -0.200119 0.398832
-0.113083 -0.169039 -0.051635
0.057271 0.396474 -0.353481
0.280650 -0.044091 -0.303327
-0.084502 -0.206404 -0.202594
-0.060524 0.140399 -0.371567
-0.267111 0.258259 -0.235246
0.185750 0.187714 0.180126
-0.598284 -0.032449 -0.117516
-0.252413 -0.448666 -0.016182
0.157596 -0.297376 -0.004591
0.300828 0.361563 0.206656
0.349564 0.036973 0.078674
0.118563 0.077572 0.231577
0.156312 -0.047369 0.123679
-0.357738 0.084035 -0.084096
0.070114 -0.277440 -0.341623
-0.422954 -0.273059 0.087043
-0.441656 0.155390 -0.082770
0.276380 0.120646 -0.359987
-0.331993 0.056762 0.026484
-0.059978 0.310346 -0.353699
0.335451 -0.071168 -0.159898
-0.038950 -0.251498 -0.215654
0.295694 0.002773 -0.260996
-0.270073 -0.016722 -0.117445
-0.281135 -0.437620 -0.327969
-0.557547 -0.061550 0.097877
0.388244 0.131471 0.372251
-0.054799 0.407664 -0.160392
-0.305318 -0.387982 0.122153
0.195612 0.406159 0.185450
0.433628 0.267620 0.145984
-0.511037 -0.202382 -0.200204
0.351629 0.223512 0.339759
-0.528832 0.045666 0.060350
-0.589486 -0.109772 -0.231416
0.309267 0.279905 -0.403502
0.290308 -0.016241 -0.316246
-0.147413 0.383241 -0.096238
0.354344 0.061321 0.088671
0.356049 0.137908 0.177098
-0.156913 -0.295763 0.456568
0.273680 0.033816 -0.313192
0.041237 -0.170967 0.383278
-0.186811 -0.515045 -0.042596
0.300969 0.254680 -0.400844
0.042179 -0.219584 0.371453
-0.239330 0.133470 0.084202
-0.273479 -0.302288 -0.457543
-0.463980 -0.250626 -0.224233
0.362138 -0.046121 -0.115041
-0.589351 -0.120954 -0.194378
0.175163 -0.161893 0.387289
0.400815 0.164741 0.088812
-0.230371 -0.469531 0.000435
-0.534104 -0.162040 0.099116
0.285839 0.138699 0.420533
0.154726 -0.138001 -0.251533
-0.191434 0.254431 -0.009645
0.131685 0.079508 0.174437
-0.354818 -0.349099 -0.053377
0.174058 0.250094 -0.404099
-0.203040 -0.496532 0.001250
0.021873 -0.465775 -0.183800
0.302857 0.174032 0.209820
-0.314109 0.060512 -0.267633
-0.352731 0.040619 0.214730
0.121312 -0.245761 -0.312657
-0.150376 0.305023 0.090838
0.093595 -0.034692 0.157891
0.163881 -0.129929 -0.250979
-0.231564 0.212357 -0.003783
-0.437480 0.156017 -0.066548
-0.509140 -0.198964 -0.111900
0.419403 0.151567 -0.296582
0.054845 0.351295 -0.379892
0.176180 0.157281 0.216261
-0.046597 -0.331473 0.463879
0.167822 0.309029 -0.400135
0.406571 0.171570 0.282300
0.074189 -0.173410 0.212188
-0.269014 0.072042 0.113807
0.478560 0.142064 -0.214199
0.083277 0.403346 0.136736
0.063909 0.397688 -0.328742
0.159115 -0.026281 -0.338756
-0.062418 -0.313601 0.277680
-0.198804 0.162730 -0.391475
-0.300340 -0.035469 0.270924
-0.148753 -0.147845 -0.329226
0.261679 -0.079552 0.386297
0.493873 0.102669 -0.166973
-0.295647 -0.075914 0.290079
-0.271467 0.036020 -0.319458
-0.139085 -0.063944 0.292520
-0.028347 -0.346285 0.218312
0.380967 0.025323 -0.125275
-0.359447 0.175051 0.071820
0.251017 0.039497 0.353465
0.383328 0.220129 0.217327
-0.012011 0.448220 -0.245814
0.073798 -0.083680 0.230153
0.042325 -0.081350 0.244244
-0.037992 -0.238649 0.039206
0.014680 -0.264810 -0.391745
0.423482 0.079486 -0.045987
-0.169565 -0.519486 -0.269757
0.369976 0.064854 0.075658
0.198350 0.151475 0.208939
-0.538676 -0.168930 -0.325825
0.282829 -0.072267 -0.275962
0.340026 0.007815 -0.015738
-0.342929 0.128169 0.143779
0.100377 -0.226016 0.376644
0.530266 0.127569 -0.139643
-0.323617 0.136947 -0.133245
-0.474410 -0.221039 0.103639
-0.192773 -0.511404 -0.078392
-0.089776 0.381146 0.045099
-0.036539 -0.492050 -0.239564
0.294471 0.188628 0.397696
0.270923 0.191917 0.326233
0.305581 -0.052113 -0.084857
0.085687 -0.124144 0.123274
-0.101962 -0.489787 -0.284530
-0.322444 -0.371430 0.110534
-0.012038 -0.109036 0.265867
-0.106014 0.409765 -0.070924
0.045544 0.420685 -0.325801
-0.041888 0.088745 -0.386959
0.173992 0.404473 -0.380806
-0.095737 -0.171512 0.297159
-0.156608 -0.525548 -0.256109
-0.297608 -0.251133 -0.469340
-0.215726 -0.066171 -0.031991
0.358479 0.232552 0.286233
0.199716 -0.246156 -0.182100
-0.231925 0.191701 0.029023
-0.450549 -0.250400 0.008381
-0.582795 -0.124127 -0.093012
0.145274 0.515604 -0.345402
0.439026 0.058953 -0.067163
0.019541 0.096758 -0.393818
-0.224371 -0.471190 0.074492
-0.464485 -0.240756 -0.063251
0.131587 0.424410 0.123771
0.135023 0.522978 -0.298761
-0.419995 0.113868 -0.276776
-0.042833 0.272574 -0.333218
-0.263329 0.200179 -0.125046
0.311350 0.148889 0.266370
0.161988 -0.227921 0.098122
-0.146410 0.217971 -0.290532
-0.445799 -0.125896 -0.414997
-0.313556 0.070055 -0.393752
-0.138759 -0.157936 0.310182
-0.181196 0.313132 0.053995
0.319308 0.106815 -0.363166
0.155078 0.513537 -0.337414
0.019572 -0.005074 0.185679
0.172494 0.206134 0.181013
-0.384667 -0.031527 -0.420705
0.004147 -0.157728 -0.434079
0.110621 0.042192 0.231357
-0.060373 -0.206137 -0.447210
-0.264098 -0.430024 0.105220
-0.148288 0.353422 0.025082
0.264890 -0.176493 -0.057738
-0.136149 -0.550597 -0.155863
-0.149016 0.253346 0.049970
0.031419 0.216240 -0.426261
0.096257 0.027246 -0.439770
0.134425 0.064337 0.224473
0.327459 0.142352 0.230149
0.333107 0.265451 0.160557
0.048603 0.247183 -0.418861
0.257635 -0.069981 0.103859
0.006608 0.378451 0.076564
0.437909 0.130195 0.026590
-0.269207 -0.019713 -0.159966
-0.116344 -0.178795 -0.292993
-0.260556 0.190285 -0.025418
-0.290065 0.269641 -0.050422
-0.055380 0.335628 0.127974
0.132660 0.276508 0.174485
-0.426050 -0.282297 -0.121465
-0.022550 -0.147108 0.267009
0.045308 -0.150525 0.387901
0.108777 0.523275 0.028066
0.258531 0.127770 0.181797
-0.034186 -0.158784 0.458825
0.138850 0.112676 0.226475
-0.161713 -0.543232 -0.183185
0.036619 0.147937 -0.394142
0.385169 0.027174 0.013404
-0.282730 0.025001 0.117297
-0.001882 0.466027 -0.150925
0.245443 -0.088440 -0.015561
0.274087 0.166567 0.154019
-0.300997 -0.393245 0.105962
0.453395 0.147019 0.027701
0.236841 0.216201 -0.419999
0.071885 0.469226 0.082502
-0.033054 0.303255 -0.373661
-0.222411 -0.022568 -0.359887
0.508089 0.104754 -0.085956
-0.173970 -0.083306 0.166442
-0.513015 -0.202012 -0.226988
-0.334031 -0.362460 -0.415937
0.081656 -0.412274 -0.100679
-0.007944 0.055031 -0.390848
-0.224729 0.210813 -0.335660
0.350307 0.002253 -0.160055
0.119424 0.488936 -0.356204
0.076850 -0.255480 -0.190416
-0.060628 0.116791 0.247095
0.088899 -0.366859 -0.228321
-0.149799 0.189952 -0.394102
-0.334515 0.198394 -0.249498
-0.588691 -0.042238 0.004890
-0.006082 -0.120207 -0.448991
0.303303 0.388971 0.199637
0.084250 -0.068178 0.151487
0.390077 0.014261 -0.023845
-0.038365 0.037830 0.188664
-0.291253 0.098647 0.068017
0.472380 0.137678 -0.026680
-0.133388 0.185813 0.122800
0.108710 -0.174291 0.068034
0.235382 0.369412 0.170490
-0.131375 -0.143722 0.059238
-0.399477 -0.323226 -0.380834
0.108291 -0.219349 -0.203131
0.232338 -0.114847 -0.153648
0.161825 0.277556 0.200771
0.329396 0.088016 -0.316266
0.199899 0.353745 -0.427148
0.065777 -0.226898 0.369094
-0.328548 0.047878 -0.011200
-0.155750 0.369252 -0.168976
0.351874 0.142719 0.392433
-0.253626 -0.438084 0.143932
-0.081880 -0.529849 -0.181006
0.253001 -0.141351 0.044616
-0.029389 0.057767 0.187368
0.243731 0.074245 0.359618
-0.186428 0.280788 -0.104544
-0.194345 -0.420458 -0.391644
-0.609486 -0.084799 -0.065435
-0.431064 0.060449 0.147693
-0.087790 0.291787 0.149689
0.474015 0.116689 -0.119975
-0.079562 -0.168441 0.166704
-0.535922 0.033716 0.063285
-0.069380 0.320603 -0.338913
-0.141464 -0.553006 -0.126724
0.248641 -0.016405 -0.356403
-0.069501 -0.511458 0.038025
0.248562 -0.142251 0.053266
0.249181 0.423771 0.166749
-0.069534 -0.436200 0.162262
0.141738 -0.322045 -0.012836
0.012566 -0.295221 0.207105
-0.241265 0.209910 -0.325822
0.015791 -0.448040 -0.242493
-0.509708 -0.149237 0.191052
0.111054 -0.238549 -0.130699
-0.044901 -0.329678 0.248403
-0.326513 -0.137321 0.299337
0.327750 0.139215 0.159868
0.003075 0.453591 0.032362
0.004276 -0.246259 -0.403258
-0.075957 0.305808 -0.347528
0.088053 0.513620 0.016135
0.040005 0.042432 -0.448110
-0.105267 -0.521273 0.059445
-0.285763 0.149293 -0.198483
0.086024 -0.397651 -0.140821
-0.125008 0.200194 0.118980
0.281276 0.100761 0.426328
0.084579 0.558496 -0.138013
0.091199 0.164630 -0.398185
0.162054 0.153306 -0.395875
0.087462 0.557909 0.028055
-0.111852 -0.028052 -0.466901
0.050577 0.189429 -0.392388
-0.035371 -0.010766 -0.385782
-0.196188 -0.499474 0.069349
-0.018050 0.272339 -0.347945
-0.591593 -0.115498 -0.198774
-0.186212 0.273506 -0.063264
0.097555 -0.061329 0.479026
-0.133113 -0.191802 0.310503
0.269808 0.298192 -0.434483
0.183896 -0.165773 -0.137249
0.002770 0.205347 0.222527
0.054229 0.472166 0.060409
0.374534 0.198160 0.350684
-0.436222 0.082040 -0.300839
-0.606701 -0.075283 -0.140530
-0.025210 0.400012 -0.297425
-0.469624 0.114491 0.019546
-0.022441 0.401930 -0.242977
0.032616 0.234165 0.213726
-0.121304 0.012892 0.273891
0.132675 -0.133398 0.371444
0.062061 -0.203083 0.084164
-0.374461 0.047747 0.201441
0.342391 0.015806 0.367373
-0.247098 0.303670 -0.062229
-0.118821 -0.016621 0.280491
0.273680 -0.055983 0.096712
-0.011417 -0.345714 0.382102
0.087010 0.584536 -0.026542
0.520166 0.119370 -0.153699
-0.029279 -0.257609 -0.140858
0.155984 0.044690 0.213375
0.210194 0.312643 -0.427985
-0.418454 -0.301550 -0.323502
-0.360487 0.208411 -0.173520
-0.128233 -0.164621 0.308735
0.257606 0.007996 0.085977
-0.531269 -0.119438 -0.331883
-0.288473 -0.003856 -0.261478
-0.441936 -0.096746 -0.416307
0.146434 -0.252566 -0.277449
0.003874 0.501838 -0.124789
-0.186701 -0.099003 -0.100084
-0.462851 -0.054447 0.211415
-0.100603 0.394284 -0.212362
0.266999 -0.089615 -0.088933
-0.363069 -0.141474 0.288079
-0.229390 0.147446 -0.274941
0.356757 0.100846 -0.304765
-0.189338 0.023345 0.268835
0.268317 -0.130391 -0.236084
-0.045593 -0.243682 -0.277613
0.205935 -0.179667 -0.272869
0.131946 0.368659 0.148089
-0.385396 -0.212976 0.274733
0.002603 0.492522 -0.168424
-0.244642 -0.063117 0.291127
-0.345183 0.094567 -0.012150
-0.119098 0.233615 -0.301054
-0.257492 0.285446 -0.002888
0.295690 -0.077876 0.049862
-0.136472 -0.157370 -0.246926
-0.254678 0.147655 -0.369991
0.116032 -0.200230 0.160565
0.346750 0.356472 0.184847
0.292644 0.006080 -0.332161
-0.559868 -0.003385 0.049550
0.010691 -0.091200 0.168845
0.244306 -0.101505 0.395811
0.106493 -0.227594 0.152320
0.118545 -0.353271 -0.157955
-0.025234 -0.241040 -0.303853
-0.173743 -0.176547 -0.472325
-0.259107 0.242121 -0.278486
-0.339598 0.057602 -0.042479
0.109454 -0.043150 0.474732
0.497427 0.142092 -0.140090
-0.301106 0.147072 0.157365
-0.020414 -0.199140 -0.329493
-0.248478 0.110272 -0.286668
-0.448196 -0.062887 -0.403372
-0.068010 -0.348444 0.278650
-0.179833 -0.181661 0.319592
-0.046600 0.363719 0.037953
0.215257 0.008951 -0.332092
0.113045 0.326204 -0.403676
-0.294447 0.114587 0.190820
0.212132 0.194648 0.176802
-0.410172 0.102974 0.114578
-0.307829 -0.400634 -0.137239
-0.341008 -0.374755 -0.266476
-0.350447 -0.341761 0.135154
0.127325 0.040337 -0.378865
-0.176712 -0.413452 -0.395237
-0.102335 -0.175962 0.009474
0.110835 -0.152674 0.463825
0.087051 -0.268125 -0.090917
-0.501393 0.009454 0.131148
0.184328 0.134394 0.172577
-0.004018 0.441133 -0.205965
0.084741 -0.149757 -0.398711
-0.390233 0.192848 -0.149450
0.322112 0.178666 -0.368488
0.412682 0.047348 -0.211368
-0.132731 -0.012265 -0.382130
0.130541 -0.215728 0.424737
-0.102957 -0.347798 -0.417885
-0.265054 0.014482 -0.434954
0.005049 -0.170944 -0.332834
-0.118401 -0.163395 -0.046121
0.089238 0.029058 -0.383754
-0.417123 0.160918 -0.004565
-0.041365 -0.157914 0.446760
-0.271396 -0.014986 0.268648
-0.220214 0.329642 -0.134477
-0.279342 0.108289 -0.262576
-0.131178 -0.163017 -0.253946
-0.524033 -0.182438 -0.084302
-0.069010 -0.215258 -0.088173
-0.098351 -0.396592 0.382438
-0.343969 -0.359292 -0.043179
-0.018971 0.173464 -0.431647
0.481272 0.121436 -0.255348
0.372547 0.015424 -0.113001
0.418998 0.277182 0.163680
0.234551 0.016062 0.171009
0.138972 -0.204892 -0.160702
-0.119957 -0.292115 0.485622
-0.446658 -0.248923 -0.409386
-0.374999 0.014724 0.222143
0.039772 0.217228 0.219590
-0.000260 0.458641 -0.175812
-0.181138 0.106285 -0.337524
0.330136 0.093560 0.091961
-0.161364 -0.528657 0.069438
0.056305 0.289533 0.192687
-0.110570 -0.529949 0.040897
-0.248926 -0.110799 -0.474882
-0.454248 -0.257918 -0.184007
-0.076676 0.321356 0.129670
0.182009 0.351434 -0.395692
0.061139 0.039360 -0.387923
-0.522081 0.046047 0.072354
-0.263040 -0.446832 -0.165344
-0.069767 0.359509 0.016252
0.197020 0.217522 0.208464
-0.147640 -0.413438 0.324085
-0.028185 0.474345 -0.119434
0.396150 0.073432 -0.232468
0.085504 0.448412 -0.309538
0.211592 -0.197199 0.050443
0.216081 -0.032129 -0.301109
0.339818 0.090419 0.119318
-0.301453 0.259729 -0.043392
0.273396 0.083854 0.345769
-0.242532 -0.454872 0.045249
-0.055377 -0.236139 -0.265344
0.181233 -0.128173 0.142508
-0.173307 -0.144521 -0.472514
0.305667 -0.043002 -0.153237
-0.508303 -0.188316 0.089859
0.315309 -0.024907 -0.032675
-0.305194 0.095010 0.057373
-0.210675 -0.503342 -0.250038
0.240590 0.090813 0.183882
0.146132 0.101718 -0.390450
-0.088743 -0.280729 0.339775
-0.152555 0.379943 -0.141375
-0.603111 -0.078254 -0.028830
0.013174 -0.196035 0.127271
0.084372 0.096694 0.185170
0.022427 -0.156049 0.142894
0.249066 0.088040 0.439285
0.273867 0.346359 -0.444457
0.408423 0.107999 -0.294884
0.009470 -0.141659 0.480128
-0.080626 0.228156 -0.398036
0.206287 -0.190210 -0.262416
0.381608 0.003273 -0.204888
-0.363266 -0.267939 0.272299
0.489988 0.154888 -0.219894
0.299220 0.176188 0.195332
0.071037 0.378049 0.119131
-0.000274 0.344516 -0.360686
-0.064197 0.050357 0.186800
-0.230813 -0.451176 0.188288
0.103391 -0.095834 0.214714
0.107259 0.423831 -0.372628
0.015546 -0.169936 -0.328931
-0.503600 0.096124 -0.159581
-0.317310 -0.171846 0.299612
-0.089016 -0.185286 0.074927
-0.200346 -0.458347 0.192768
0.043675 -0.021806 -0.448234
-0.125846 -0.159054 -0.095429
0.090147 -0.319984 0.106292
0.059207 -0.379019 -0.259146
-0.186832 0.130691 0.125151
0.228311 -0.175568 0.046706
0.029770 0.305903 0.135542
0.207894 0.340542 -0.429894
0.247814 -0.022649 0.140798
0.050167 0.057152 -0.389999
0.077991 -0.009038 0.238363
-0.570478 -0.110499 0.094861
-0.398924 -0.300225 -0.423516
-0.202862 0.232462 0.011392
-0.346663 -0.336295 -0.427819
-0.072073 -0.421479 -0.362645
0.107297 -0.026619 -0.426348
0.185160 0.506077 0.136365
0.033706 0.522970 -0.190891
-0.303376 -0.286094 0.286237
0.172014 0.356461 -0.391730
0.041626 -0.077948 0.162799
-0.046086 -0.302289 -0.407356
-0.190007 0.112428 0.133511
0.083768 0.518729 -0.302167
-0.115771 -0.521482 0.071359
-0.090385 -0.159107 -0.463582
-0.272315 -0.417349 0.178361
0.229640 -0.101765 0.370954
0.004964 -0.273025 -0.246677
-0.233513 0.316613 -0.079142
0.191868 0.503904 0.131671
-0.479327 -0.239922 -0.306313
0.034314 0.455810 0.023086
0.034166 -0.007674 0.254959
0.344615 0.029352 0.078634
-0.245719 -0.460657 -0.107511
0.346005 0.065189 0.317075
-0.059195 0.207268 -0.411657
0.327191 -0.041560 0.035720
0.168759 0.290600 -0.423717
-0.045443 -0.249591 -0.425476
0.203129 -0.101081 -0.242218
-0.345621 0.010583 0.233328
-0.267564 0.125533 -0.259250
-0.062405 0.014006 -0.461101
-0.187165 0.208523 -0.262893
-0.197738 -0.404319 0.305321
-0.069727 -0.308598 0.291073
0.162169 -0.307660 -0.123136
-0.067060 -0.245887 0.488311
0.426537 0.108663 0.010804
-0.010431 -0.351670 0.436766
-0.046329 0.414789 -0.064693
-0.162641 -0.025236 0.284118
-0.019016 0.112434 -0.388726
0.242600 -0.048508 -0.341832
-0.125436 0.260591 -0.276034
0.204382 0.232931 0.205504
0.226418 0.417665 -0.394504
-0.188801 -0.033838 0.285806
-0.203660 -0.089331 -0.223637
-0.043917 0.161622 0.167553
0.284583 -0.145525 -0.048970
-0.090117 -0.118289 -0.464213
-0.201259 -0.358079 0.363458
0.250572 0.147550 0.366900
-0.011926 -0.358428 0.190591
0.282995 0.208370 0.356792
-0.249655 -0.462770 -0.210281
0.276374 0.172842 0.328825
-0.188314 0.307185 0.055678
-0.447167 -0.040336 0.218386
0.169789 -0.181655 -0.127277
-0.326381 -0.068230 -0.448297
0.024027 -0.044179 -0.451071
0.167697 -0.089156 0.085107
-0.301502 0.017539 0.242742
0.127901 -0.257611 -0.294140
0.031498 -0.269891 0.047790
0.226838 -0.059829 -0.348596
-0.225149 -0.478208 -0.336484
-0.607655 -0.069041 -0.133808
0.121456 0.331985 -0.382120
0.518940 0.144992 -0.228217
-0.451299 -0.266283 -0.395810
-0.401633 -0.307034 -0.130466
-0.446638 -0.116913 0.233705
-0.017275 0.189580 -0.373157
-0.291790 -0.088535 -0.462432
-0.010419 -0.314025 0.457526
-0.216593 0.036860 -0.346548
-0.113056 0.393625 -0.014208
-0.127353 -0.529717 0.062193
-0.037207 -0.519969 -0.036063
-0.302338 0.224011 0.061966
-0.056688 -0.266442 0.482941
0.388052 0.030186 -0.097941
0.407315 0.130681 -0.324021
0.095104 -0.246979 -0.164188
-0.098366 -0.266643 0.359923
0.157649 -0.179025 -0.189165
-0.074856 -0.192114 0.137910
0.031538 -0.129203 0.479984
-0.296433 -0.185744 0.302752
-0.385543 0.032158 -0.378221
0.251845 0.130230 -0.373320
0.225444 0.081093 -0.402521
-0.143773 -0.530623 -0.240163
0.064368 -0.276545 0.161136
-0.295279 -0.168072 -0.480732
-0.502350 -0.198474 0.014764
0.433710 0.136881 -0.313596
0.018254 -0.326593 0.430801
-0.029352 -0.141046 0.270655
-0.347275 0.084148 0.186874
0.128506 -0.222871 0.135230
0.380263 0.091563 0.371214
0.379204 0.244769 -0.376685
-0.346353 0.066626 0.200769
0.109896 0.028277 -0.379513
-0.004630 0.381278 0.115098
0.175239 0.214785 0.180736
-0.300322 0.091771 -0.385349
-0.349618 0.113216 -0.100353
0.149160 0.142641 0.223232
-0.084321 -0.226067 0.401954
-0.025122 0.010028 -0.456997
-0.424894 -0.283063 -0.114873
0.148931 -0.235799 -0.290046
0.019253 -0.326973 0.424528
-0.080499 -0.519145 0.031103
0.005025 0.453088 -0.018041
0.356890 0.115887 0.119798
-0.090065 -0.199040 -0.459004
-0.154379 -0.027762 0.284582
-0.153778 -0.119329 -0.470705
-0.157187 0.291389 -0.182292
0.173522 -0.130389 0.041552
0.413393 0.124372 0.344694
-0.235241 -0.398232 0.284085
-0.540042 -0.171565 -0.168762
-0.189293 -0.433697 0.238010
0.295850 0.123432 0.332512
-0.236164 0.224973 0.119426
-0.104315 -0.165651 0.132019
-0.075861 -0.443475 0.157477
0.316980 0.093336 0.324181
0.204029 -0.057550 0.161607
0.186740 0.003820 -0.397239
0.482901 0.195743 0.092116
-0.102980 -0.048479 0.193417
-0.521829 0.082811 -0.154865
-0.554106 -0.062285 0.103279
-0.218141 -0.456806 0.190484
0.134833 -0.346758 -0.100101
-0.211643 -0.005018 -0.359461
0.232837 0.436279 0.159364
0.158653 -0.127399 0.061177
-0.266810 0.197987 -0.111299
-0.266788 0.170992 -0.342411
0.083286 -0.208420 -0.377217
-0.232897 0.126368 0.097538
0.143428 -0.087880 -0.389517
0.116641 0.400403 -0.359732
0.212946 0.358617 0.193177
0.268244 0.019187 0.085854
0.066076 0.220365 -0.430246
-0.071032 0.291316 -0.297717
-0.317114 0.055419 -0.401284
0.366303 0.053407 0.072267
0.142587 0.498428 0.085793
-0.037608 -0.234081 0.385657
-0.564726 -0.024358 0.058845
-0.209411 0.199842 0.166542
0.244005 0.321631 0.196877
0.427156 0.081494 -0.178693
0.225290 -0.213255 -0.017174
0.226929 -0.221584 -0.137467
0.006415 -0.233540 0.242363
-0.011612 0.400233 0.087645
-0.238708 -0.050013 -0.344727
0.236482 -0.099213 0.374159
-0.192126 -0.090342 -0.044910
0.332959 0.127874 0.148019
-0.068412 -0.350638 0.265289
0.032356 -0.135573 0.147184
-0.141020 0.159809 0.131998
-0.131464 0.045174 0.266692
0.289576 -0.032055 0.412106
0.415767 0.033170 -0.149330
-0.141572 -0.091800 0.192260
0.031228 -0.378766 -0.292630
-0.570229 -0.100911 -0.276602
-0.077030 0.353260 0.091789
-0.059131 0.044353 -0.388584
0.066785 -0.141527 -0.319843
-0.197068 -0.074596 0.114486
0.447920 0.067418 -0.141204
0.306290 0.006330 0.102116
-0.198783 0.217496 -0.239239
-0.419763 -0.025880 -0.401429
-0.515675 -0.114752 -0.349021
-0.076911 -0.110127 0.188873
0.014903 -0.014144 -0.384023
-0.075961 -0.251802 -0.438972
-0.000948 0.050704 -0.390430
0.093457 0.213333 0.218050
0.178827 0.112602 0.212412
-0.199812 -0.391445 0.321223
-0.335383 -0.363804 0.024087
-0.089368 -0.197701 0.434346
-0.102972 -0.543020 -0.156934
-0.199203 0.137716 0.113910
0.289971 0.095966 0.338399
-0.526404 -0.190428 -0.259305
-0.091210 0.368819 -0.061258
-0.138875 -0.385395 -0.411253
-0.246342 -0.048399 -0.317285
-0.163991 -0.053931 0.190455
0.338146 0.117838 -0.357407
-0.041980 0.138267 0.175817
0.291793 -0.027551 0.013946
-0.215482 -0.069065 -0.078873
-0.475959 -0.234243 -0.148281
0.025852 -0.360100 -0.316078
0.279257 0.051928 -0.365463
0.357286 0.012141 -0.045749
-0.102483 0.214458 0.122503
0.073573 -0.203478 -0.262902
0.224401 0.165681 0.168470
0.196693 -0.119690 0.023289
0.212468 0.409451 0.159563
-0.578129 -0.017082 -0.002593
-0.062152 0.116215 -0.376611
-0.122782 -0.306244 -0.441949
-0.035398 0.029134 0.189436
0.178832 -0.054625 0.183790
0.401231 0.074531 -0.226286
-0.296610 0.272490 -0.131084
-0.248201 -0.047300 -0.304709
0.139680 0.167343 0.182943
0.175167 -0.267612 0.009375
-0.002828 -0.187614 0.485737
0.139959 -0.130693 0.370549
-0.031363 -0.131513 -0.363624
0.013609 -0.126479 0.472794
-0.528843 0.018620 0.087743
-0.100734 -0.209844 0.441206
-0.273882 0.251957 -0.237981
-0.122251 0.304797 0.020179
-0.072363 -0.034546 0.192587
0.033454 0.054059 -0.448732
0.024259 -0.473939 -0.133974
-0.603786 -0.054961 -0.135520
0.189902 0.422972 0.146989
0.273443 -0.051153 -0.305643
-0.504752 -0.213475 -0.287934
-0.264633 -0.437593 -0.033870
-0.079809 0.299120 -0.350873
-0.525332 -0.192646 -0.319039
0.006227 -0.338269 0.402534
-0.337714 0.214574 -0.204475
0.228646 0.444578 -0.396217
0.394715 0.046295 -0.162867
0.005624 -0.136403 0.157980
0.323781 0.001732 0.081908
-0.145332 0.179072 -0.401754
0.067975 -0.249629 -0.364930
-0.064964 0.368779 -0.223621
0.156113 -0.258673 -0.259646
0.365508 0.143101 0.170125
-0.061332 0.367361 -0.233637
-0.171062 -0.107745 0.011156
0.454424 0.126233 -0.011421
0.024555 0.000521 -0.385068
-0.076662 0.377298 -0.034210
0.247213 -0.199690 -0.057339
0.187256 0.422071 -0.380792
0.060479 0.529081 -0.096990
-0.042967 -0.084566 0.279718
0.183177 -0.098103 -0.361970
0.120746 -0.347341 -0.171257
-0.178746 -0.526132 -0.246096
0.186829 0.380920 0.161775
0.229675 -0.090300 0.363454
0.172691 0.300250 0.173857
-0.566350 0.023208 -0.150291
-0.200799 0.118666 0.125373
0.386259 0.149824 -0.354594
-0.085269 -0.030738 0.280233
-0.061564 -0.295330 0.477948
0.198904 0.088637 0.201444
-0.071872 0.325201 0.128841
-0.069261 -0.105409 0.187678
0.185999 -0.038482 0.107928
-0.491505 0.112798 -0.066411
0.007566 -0.101714 0.167122
-0.512954 -0.129959 0.188539
-0.451359 0.064181 -0.306196
0.389091 0.205103 -0.391280
0.405637 0.147094 0.356421
-0.137976 0.244115 0.071088
0.071350 0.297493 -0.405377
-0.261697 0.131287 0.192831
-0.322013 0.245905 -0.157360
0.028258 -0.298083 0.372469
-0.182206 -0.003715 -0.458365
0.374987 0.024402 -0.150555
-0.244700 -0.308853 0.343957
-0.470481 0.033820 -0.319294
0.052436 -0.030276 -0.446226
0.340856 0.061774 -0.279074
0.233905 0.002728 0.100644
-0.474296 -0.240535 -0.226725
-0.014665 0.479502 -0.081467
0.043229 -0.144931 0.390157
0.073094 0.578542 -0.045366
-0.053857 -0.073242 0.189685
-0.293423 -0.400431 0.112781
0.232906 -0.143243 0.079489
0.103695 0.500100 0.047551
-0.051387 0.262455 -0.390348
0.022602 0.304946 0.133137
0.459087 0.074807 -0.132413
-0.363719 -0.177233 -0.461556
-0.072312 0.408987 0.022700
0.137359 -0.310934 -0.222105
-0.193625 0.136107 0.118183
0.149028 -0.157166 -0.236117
0.051668 0.317861 -0.361835
-0.118130 -0.180624 0.305780
0.318866 0.217327 -0.386132
-0.525360 -0.172740 0.065077
0.373213 0.184594 0.369163
0.196523 -0.142139 -0.317095
0.311734 -0.097948 -0.178733
0.006396 -0.043087 0.263381
0.218518 -0.076169 -0.345671
0.311269 0.110746 0.412362
-0.195024 0.101204 -0.421753
0.257164 -0.046762 0.039579
-0.033089 -0.237392 0.093520
-0.323432 0.068135 -0.252996
-0.032602 0.078843 -0.454232
-0.052896 -0.018142 -0.385402
0.261415 0.050278 -0.374681
-0.275536 -0.280044 0.297286
0.399798 0.222078 -0.398141
0.465416 0.204095 0.114359
0.279034 0.268203 0.240060
0.181670 -0.001722 0.134401
0.268671 -0.114883 0.052626
-0.390816 -0.304400 0.097623
0.081004 -0.033704 -0.364977
-0.264223 -0.271775 0.301374
0.195092 0.018482 0.136884
0.443122 0.125415 0.010576
-0.197330 0.333232 -0.020709
-0.046834 0.108610 0.248143
0.039922 -0.094566 -0.353635
0.360319 0.079420 -0.316877
-0.000927 -0.123358 0.456375
0.168634 -0.128180 0.050507
0.144926 -0.290438 -0.239307
0.081887 0.474869 0.051929
-0.467455 -0.247918 -0.236895
-0.172097 -0.096712 -0.374884
-0.130606 0.378517 -0.003410
-0.227184 -0.473358 -0.011041
0.006606 0.251297 -0.409133
-0.288564 -0.022840 0.267755
0.152048 0.012596 -0.417117
0.051550 -0.197550 0.220896
-0.315186 0.180985 -0.300149
-0.314731 0.144519 -0.332313
0.172430 -0.300847 -0.062681
0.206095 -0.213290 0.034446
0.407911 0.226146 0.122299
-0.340482 0.051196 -0.145788
-0.582888 -0.017505 -0.154932
-0.405234 -0.145012 -0.438904
-0.097030 0.383046 -0.246755
-0.213015 0.252912 -0.096738
0.281529 -0.032713 -0.236111
0.267953 0.210906 0.271163
