0.038720 -0.073006 0.215662
-0.101643 0.106826 0.018159
-0.004504 -0.035596 0.270757
0.218606 -0.098703 0.412167
0.325274 0.232696 -0.078651
0.084253 -0.032371 -0.464294
-0.050954 -0.035899 -0.347713
0.140759 0.184149 0.269210
0.381762 0.081260 -0.049261
0.011530 0.026984 -0.038289
0.253588 0.201524 0.053771
0.089845 0.142338 -0.154681
0.210500 0.148423 -0.304743
-0.265715 0.012940 -0.264759
0.004133 0.088064 -0.243844
0.116855 0.189791 0.029288
0.219496 -0.053000 0.244800
-0.076435 0.028087 -0.032075
0.021633 -0.028355 -0.283115
-0.196544 0.021890 -0.192845
-0.002796 -0.036320 -0.230378
0.328000 0.164446 0.001961
0.198971 0.023418 0.449577
-0.036635 0.125880 0.088544
0.305906 0.029028 0.084903
-0.036806 0.108054 -0.243124
0.165139 -0.111611 0.239817
0.351740 0.056535 -0.228715
-0.012117 -0.017400 -0.191340
-0.075433 -0.012622 -0.297433
-0.167327 0.025618 -0.000298
0.038486 -0.041296 -0.428007
0.111945 0.132688 -0.143552
0.003179 0.081379 0.113886
0.027647 0.009405 0.310818
0.234974 0.253085 -0.197984
-0.249323 0.036266 -0.184153
-0.131476 -0.050700 0.378155
0.027406 -0.071945 0.369264
0.068754 0.098986 -0.059717
0.029204 -0.004557 0.204478
-0.116335 -0.064211 0.116026
0.263938 -0.014854 0.173830
0.356523 -0.015510 -0.039368
0.170744 -0.037360 0.197582
-0.022367 -0.105142 0.386962
0.256813 -0.015428 -0.137195
0.308211 0.285698 -0.091163
0.077102 0.065123 -0.445286
0.290226 0.208699 -0.245424
0.155688 0.011178 0.041820
-0.245522 -0.027273 0.210698
0.103587 0.001253 0.009774
0.369846 0.075328 -0.019725
0.007791 0.153500 0.037748
-0.279970 0.002549 -0.264226
-0.105611 -0.052515 0.392411
-0.194387 0.044300 -0.197084
0.025365 -0.034950 0.406270
-0.156418 0.089030 0.121253
-0.200284 -0.007721 -0.268687
-0.099717 -0.018402 -0.001749
0.021365 0.026909 -0.234517
0.099575 0.019881 0.310026
0.086145 0.144433 -0.157155
0.048529 -0.126378 0.393800
-0.143420 0.112593 -0.139031
-0.019336 -0.089088 0.212971
0.324053 0.157334 0.044432
0.078722 0.082001 -0.065527
0.227823 0.018256 -0.042840
0.008671 -0.095649 0.372095
0.038939 0.021682 -0.033590
0.024894 0.029371 0.180333
-0.071634 -0.016723 0.396543
0.093176 -0.159221 0.245060
-0.067110 0.064912 0.133897
0.197735 0.223374 -0.119445
-0.209983 0.021504 0.240413
0.010897 -0.014985 -0.369734
-0.079859 0.055003 -0.322803
0.005134 -0.010126 -0.010297
-0.155765 -0.003914 -0.149531
0.268940 0.240399 -0.194539
0.275116 -0.003564 0.259156
0.013426 0.088794 -0.091011
0.260875 0.020389 0.014061
0.119585 0.005239 0.053108
-0.214048 0.119423 -0.186578
0.159227 0.176075 0.239881
0.197216 0.021331 0.054292
0.318889 0.012112 0.088933
-0.176547 0.026878 0.281649
0.359296 0.119938 -0.055999
0.173462 -0.114545 0.362179
-0.101262 0.113653 -0.239010
-0.090268 -0.038271 -0.171253
-0.161860 -0.069816 0.242906
-0.061590 -0.017416 -0.266667
0.172074 -0.054778 0.464812
0.380910 -0.059627 -0.186666
0.325381 0.020183 -0.178613
0.120938 0.195634 0.346524
0.086871 0.054502 0.107105
-0.144299 -0.041124 0.037272
0.295046 0.292090 -0.080674
0.202255 0.003598 0.030710
-0.066486 -0.069313 -0.456025
-0.193157 -0.052814 0.241133
0.085020 0.141150 -0.250846
0.273222 0.288428 -0.069314
-0.071745 -0.050122 0.295719
0.054304 -0.042672 0.394297
-0.204662 -0.009154 -0.263981
0.215562 0.003772 0.334829
-0.207778 -0.097946 0.445254
-0.085939 0.005859 -0.284312
-0.147168 0.080056 0.197291
-0.097112 0.053715 -0.104485
-0.141293 0.143898 -0.152441
-0.186835 0.044498 0.255841
0.159334 -0.061084 0.208394
0.249025 0.117431 0.264897
0.118920 0.014053 -0.183523
0.046417 0.103144 -0.110497
0.041403 0.012349 -0.027403
0.120763 0.155377 -0.175480
0.295414 0.216006 -0.227070
-0.050519 -0.001296 0.344781
0.182996 0.112282 0.410380
-0.029110 0.062308 -0.320980
0.031615 0.117537 -0.034281
0.060282 -0.051814 0.463678
-0.071491 0.080802 0.126408
0.096235 0.028374 0.089373
0.208805 -0.097277 0.436851
0.057570 0.051365 -0.467277
0.013117 0.000549 -0.184397
-0.071014 -0.081497 0.367766
0.276376 0.161025 -0.297965
0.007194 0.135996 -0.192122
-0.010718 0.149099 0.043641
-0.237681 0.106027 -0.183451
-0.164416 -0.016257 0.027707
0.357991 0.160547 -0.073664
0.389676 -0.018939 -0.065033
0.268137 0.006439 0.292405
0.035830 -0.045535 -0.338215
-0.145919 -0.073121 0.244386
0.175250 0.041887 0.085722
-0.005645 0.101384 0.108504
0.068928 0.005873 -0.015149
-0.035727 0.098599 -0.231043
0.316861 0.248886 -0.124171
0.187160 0.230234 -0.164904
0.348665 0.315969 -0.220853
-0.142179 0.090420 -0.319349
-0.077048 0.049965 -0.413945
0.080085 0.088820 0.160357
-0.032095 0.032090 -0.434230
0.396542 0.165867 -0.199251
0.140711 0.027592 -0.270698
0.188449 0.158485 -0.121486
0.320989 0.241652 -0.212374
-0.121019 0.003803 -0.127790
-0.196798 -0.038237 0.090035
0.185114 -0.121073 0.402359
0.252244 0.210541 -0.237818
0.051270 -0.005958 0.220616
-0.050228 -0.038089 0.066673
0.256476 -0.040254 0.234883
0.284389 0.041980 -0.267150
0.250546 -0.008315 -0.100770
0.361235 0.251440 -0.199475
-0.037451 -0.018479 0.377166
0.130112 0.079851 -0.054327
0.302418 -0.047897 0.159151
-0.224304 0.094275 -0.199975
0.200659 -0.041565 0.454096
-0.076465 0.050600 -0.441441
0.211824 0.137688 0.214651
0.223899 0.032009 0.369169
0.338143 0.262413 -0.174332
0.344178 0.225223 -0.086411
0.335723 0.133809 -0.015189
-0.141051 0.080465 0.234390
0.202784 -0.002268 0.188401
0.227459 0.220632 -0.037322
-0.161171 -0.065329 0.390568
0.102286 0.136241 0.348987
0.303554 0.085996 -0.292851
0.141955 0.015263 0.336641
0.115854 0.028253 0.332452
-0.022421 -0.040539 -0.252461
0.244463 -0.066114 0.278453
0.325199 0.328410 -0.215012
-0.033007 0.032266 -0.450914
0.102237 -0.159072 0.252107
0.070495 0.043206 0.313440
0.350882 -0.017146 -0.066072
0.294470 -0.021404 0.207728
-0.095299 0.025522 -0.386739
0.040806 -0.051659 -0.424508
0.107595 0.007789 0.236677
0.022501 0.011295 -0.027195
-0.215107 0.082715 -0.278072
0.076983 0.085063 0.160550
0.285931 0.226941 -0.180571
-0.080281 -0.061187 0.199667
0.127770 0.086059 -0.126399
0.305065 0.218015 0.012868
-0.049710 -0.005075 -0.140783
0.199636 0.247158 -0.193262
-0.118754 -0.058029 -0.259451
0.215136 -0.099917 0.420934
-0.030791 -0.104002 0.393415
-0.237242 -0.033733 0.156090
0.215076 -0.035912 0.230252
0.130627 0.189044 0.242965
0.215763 0.060265 -0.302629
0.443750 -0.020344 -0.126750
-0.057543 0.003065 -0.460284
0.116652 0.084225 0.390836
0.107042 0.125430 0.362761
-0.175341 0.084172 0.090848
-0.238744 0.014666 -0.273283
0.130072 -0.002320 0.394808
0.022883 -0.015964 -0.489797
-0.197844 -0.050802 0.235866
0.028351 -0.006428 -0.008379
-0.105601 0.003952 -0.458506
0.107619 0.159827 0.354417
-0.001765 0.095599 -0.239382
0.425608 0.045537 -0.155512
0.114143 0.200065 0.319939
0.014769 0.002304 -0.302185
0.200261 0.217715 -0.003603
0.223086 0.054733 0.345521
0.163504 0.136325 0.354033
-0.156291 -0.052100 -0.296552
-0.032939 0.115524 0.274540
-0.017925 -0.086243 0.190939
0.414443 0.056524 -0.119949
-0.158869 0.011997 0.303884
0.039422 0.127132 -0.132350
0.307379 0.108311 -0.298745
-0.109699 0.135936 -0.156353
0.242228 0.104450 -0.313580
0.221739 0.015886 -0.220810
-0.201977 -0.053448 0.134773
0.134456 0.051204 0.401067
0.198467 0.125188 0.344809
-0.012189 0.038462 -0.273464
0.061441 -0.005226 -0.366471
-0.232255 0.095502 -0.249499
0.301926 0.252487 -0.195605
0.131382 -0.070483 0.218232
-0.238407 -0.088528 0.400851
-0.244368 -0.123806 0.392462
0.138767 -0.113981 0.461883
-0.204254 0.118942 -0.130321
0.225244 -0.080835 0.330889
0.253217 0.110099 0.258006
0.117528 0.010889 -0.195571
-0.028383 0.101073 -0.308545
0.318820 0.051377 0.060622
-0.173262 -0.063472 0.329430
0.197173 0.041949 -0.139584
0.360528 0.238433 -0.240032
-0.148072 0.079058 0.027393
0.252603 -0.043842 0.237432
0.010507 0.111731 0.104400
0.121589 0.103484 -0.297187
0.059675 0.071041 -0.399650
-0.132342 -0.034782 -0.109227
-0.155216 0.136140 -0.191264
-0.109784 -0.036043 0.391834
-0.211875 -0.004399 0.043922
-0.105253 0.085602 -0.002936
-0.154546 -0.033405 0.315524
0.241417 -0.007036 -0.126111
0.183391 -0.059630 0.290310
0.034407 0.159526 0.005701
0.183909 -0.055896 0.461723
0.255743 0.269014 -0.077758
-0.327185 0.021475 -0.101643
0.401155 0.080772 -0.145555
-0.062195 -0.045279 -0.286370
0.203341 0.020980 -0.250671
-0.072667 -0.032372 0.009662
0.408551 0.015243 -0.082426
-0.205558 -0.070166 -0.234666
-0.100924 -0.021629 -0.416609
0.183364 0.020483 -0.175212
0.085756 -0.103441 0.371070
0.020498 0.128161 -0.223605
0.079333 0.073405 0.311205
-0.147492 -0.045420 0.288367
-0.127123 -0.043703 0.037351
0.248229 0.160771 -0.298938
-0.228813 0.006410 0.202507
0.302663 -0.018276 0.049190
0.348909 0.079669 -0.263760
-0.196433 0.021836 -0.288663
-0.102028 -0.065485 -0.287237
-0.128155 -0.059062 0.351038
0.390332 0.155897 -0.118944
-0.169469 0.055242 -0.146947
-0.234425 0.003640 0.174369
-0.066327 0.086302 -0.367006
-0.127939 0.103828 0.086907
-0.054358 -0.030743 -0.190045
0.065158 0.130759 0.178075
0.084678 0.046819 0.172528
-0.019760 -0.027809 0.022790
0.115773 0.150287 -0.166235
0.315575 0.263238 -0.119890
0.086122 0.137743 -0.258286
0.173490 0.013937 -0.205063
0.094907 0.080554 -0.056756
-0.052920 0.076554 0.122878
0.258019 -0.015588 -0.109436
0.095539 0.170476 0.237561
0.071446 -0.120727 0.379369
-0.154160 0.076431 0.210421
0.057276 0.158512 0.282250
0.297138 -0.006363 0.188389
-0.139879 -0.037249 -0.113722
-0.056563 -0.056468 0.225066
-0.189971 -0.029646 -0.162472
0.308088 -0.012753 -0.067819
-0.148361 0.072924 0.251763
0.166348 -0.127658 0.391532
0.055237 0.146335 -0.180096
-0.157555 -0.040319 0.045215
-0.033078 0.116194 -0.274225
0.323812 0.186892 0.008729
-0.072262 0.098152 -0.290937
0.113374 -0.131917 0.390750
-0.219422 0.012467 0.091273
0.172508 -0.127560 0.420336
-0.039395 -0.016262 0.093467
0.181927 0.054543 0.472822
-0.079205 0.118007 -0.236472
-0.151415 0.081142 0.164185
-0.061861 -0.022872 -0.433394
0.291193 -0.081981 0.302270
-0.018705 0.121014 0.276969
-0.157850 -0.065658 0.407327
-0.050198 -0.019223 0.331090
-0.170712 -0.022231 0.332614
0.134411 0.009604 0.462276
0.327059 0.246428 -0.158023
-0.282978 0.009063 -0.254657
0.281838 0.182849 -0.280326
0.072940 -0.059409 -0.403580
0.019501 0.011868 0.333117
0.333440 0.216614 -0.037170
-0.057169 0.001887 0.178703
0.317624 0.241000 -0.028761
-0.069957 -0.039419 0.416589
-0.042351 0.005169 0.184914
-0.123979 0.054375 0.306196
-0.144376 -0.068570 0.103771
-0.046873 -0.034351 -0.203338
0.037669 -0.033600 -0.470696
0.126260 0.160014 0.089983
-0.024346 -0.023424 0.198871
0.204676 0.214507 0.051262
0.245676 0.041033 0.298567
0.098689 -0.050880 0.364449
0.191872 0.056955 -0.094466
0.287395 -0.017764 0.223884
-0.225918 -0.068498 -0.214376
0.274719 0.285094 -0.095298
-0.068599 0.011160 -0.026104
0.326408 0.142012 0.049910
-0.087654 0.021810 -0.411383
0.216645 0.259913 -0.175340
0.040853 -0.125649 0.242115
0.124501 -0.059275 0.251429
0.247667 0.014481 -0.056705
0.302508 0.000372 0.165374
-0.180468 0.126362 -0.186242
0.128563 0.152458 0.187225
0.088439 0.061710 -0.047622
0.207779 0.037824 -0.103797
0.293302 0.300091 -0.011512
-0.222400 -0.069950 0.317980
0.076206 0.150487 0.089304
-0.103887 -0.070780 0.189068
0.016440 -0.122431 0.400205
-0.124550 0.003868 -0.391936
-0.000115 0.060635 -0.363040
-0.239980 -0.084147 0.346710
0.033684 0.036165 0.101966
-0.081872 -0.065977 -0.481844
0.075182 0.141641 0.329749
0.236639 0.035984 0.063335
-0.066792 -0.062303 0.242395
0.255532 -0.019870 0.356703
-0.161451 0.019778 -0.158883
0.280832 0.295215 -0.045650
-0.047366 0.031493 -0.466878
0.219957 0.015583 -0.217203
-0.055004 -0.033090 -0.417809
-0.064066 -0.015578 -0.437397
-0.092773 -0.056195 -0.445094
-0.179626 0.067066 -0.178084
0.081534 -0.118972 0.460972
-0.134097 0.123521 -0.233572
-0.109091 0.004281 -0.394955
0.107089 0.212535 0.268490
0.346591 -0.013805 -0.159158
-0.134258 0.035629 -0.132387
-0.065209 0.078164 0.201021
0.240104 -0.007450 -0.148687
0.286270 0.291224 -0.086512
-0.239039 -0.114310 0.383479
-0.178396 -0.062666 0.107596
-0.088082 0.081266 -0.282946
0.018651 -0.041284 -0.394020
0.214438 0.219261 0.052383
0.191977 -0.097464 0.291460
0.397035 0.104872 -0.214561
0.214276 0.085737 0.101557
0.035681 -0.117389 0.381925
0.205568 0.047930 -0.296803
0.080960 0.150869 0.190511
0.341632 -0.026785 0.055549
0.355697 0.230995 -0.232918
-0.196168 -0.050049 0.240984
-0.111768 -0.014490 -0.434658
0.099899 0.013524 -0.018777
0.137542 -0.042797 0.209291
0.056270 0.157133 0.288875
-0.043323 0.049930 -0.440973
0.251194 0.040719 0.181605
0.143096 0.165378 0.356601
-0.090299 0.056164 -0.296168
0.007816 0.095505 0.307421
0.192074 0.112761 0.359925
-0.208550 -0.039399 -0.102698
0.067622 0.128236 -0.038548
-0.296829 0.019143 -0.156591
0.099540 -0.038290 0.362432
0.161411 0.273847 0.308877
0.395960 0.069882 -0.117360
-0.017552 -0.030999 0.352871
0.307755 0.158549 0.064466
0.309906 0.114308 -0.298482
-0.066269 -0.041748 0.046467
0.293658 0.175416 0.064574
0.150016 0.012177 0.329765
0.176229 -0.058854 0.211979
0.063988 -0.004064 0.254832
0.253073 0.014333 0.319834
0.370746 0.241635 -0.229128
0.083372 0.104302 -0.055701
-0.063517 0.035795 -0.504143
0.225831 0.076787 0.319630
0.014365 0.144269 -0.007934
0.129061 0.132530 0.396326
-0.098544 -0.009652 0.381103
-0.041617 -0.060494 -0.463012
0.239583 0.128025 0.280670
0.222962 0.099490 0.344124
0.250637 0.010780 0.238998
0.170769 -0.043805 0.290110
-0.043392 0.097812 0.111477
-0.010410 0.095721 -0.093565
-0.018991 -0.020462 -0.171751
-0.083753 -0.038821 0.309294
0.241587 0.174134 -0.291441
0.407448 0.097435 -0.148207
0.261714 -0.015419 0.298259
-0.049420 -0.035153 -0.364129
0.329217 0.327385 -0.218984
0.025398 -0.020101 -0.370948
-0.173307 -0.024861 -0.301730
-0.231230 -0.009589 0.067177
0.338939 0.065576 0.038421
0.067165 -0.031539 0.435418
0.043066 0.017426 -0.477335
0.007439 0.153875 0.047481
0.225336 0.125402 0.319299
0.064375 0.086854 0.114119
0.089361 -0.091941 0.473035
0.007906 0.137470 -0.184511
0.253669 0.040152 0.065485
0.003348 -0.029166 0.406542
0.039736 0.075207 -0.403858
-0.249106 -0.031069 0.142419
0.228066 0.109464 0.212465
0.384293 0.115691 -0.235280
-0.251525 0.018317 -0.264480
0.360638 0.061027 -0.017149
0.065047 0.047428 -0.431888
-0.154373 -0.064369 0.086905
0.267949 0.041124 0.269915
-0.064805 -0.000956 -0.499991
0.215026 0.077108 0.382387
-0.071382 0.050652 -0.346091
0.321332 -0.021400 0.053967
-0.147566 -0.054730 0.063424
-0.182102 0.053626 -0.316448
-0.234879 0.105755 -0.270918
0.094401 -0.053948 -0.384900
0.207982 0.168665 0.085834
-0.253718 0.017793 -0.216178
0.079362 0.039145 -0.039581
0.224968 -0.049088 0.282563
-0.059961 0.044714 -0.376354
0.091927 0.163782 0.292835
0.385837 -0.066697 -0.162408
-0.075811 -0.024653 0.165709
-0.171488 0.054570 -0.156289
-0.037526 0.037125 -0.442175
0.212008 0.227889 -0.090877
0.108801 0.144603 0.350284
0.106105 -0.151987 0.277101
0.141531 -0.138081 0.292083
-0.153551 0.140489 -0.181837
-0.027256 0.097672 0.202403
0.076229 0.078143 0.310667
0.370097 0.079175 -0.015364
0.040065 0.034361 -0.040713
0.201000 0.011945 0.001428
0.069109 0.027065 -0.433920
0.040895 -0.077987 0.238896
0.227845 -0.075198 0.283757
-0.204061 -0.073608 0.320421
-0.123415 -0.068317 0.264561
0.259576 0.245537 0.044021
0.442773 -0.013613 -0.162151
-0.091511 -0.028328 0.332647
0.114585 0.087296 0.159108
0.446875 0.022317 -0.151232
0.115497 0.106953 0.112791
-0.001783 0.001176 0.088616
-0.084398 0.103703 0.106909
0.194410 0.202277 -0.073897
0.073621 -0.018012 -0.397227
0.122107 -0.144503 0.288839
-0.023553 0.027599 -0.116802
0.091935 -0.044143 0.366659
-0.023639 0.084706 -0.338265
-0.094426 -0.039185 -0.170620
0.130782 0.014959 0.455615
0.139044 0.038123 0.454649
0.283437 0.118152 0.084733
-0.129628 0.103962 0.081527
-0.007666 -0.011488 0.079425
0.172234 -0.102542 0.294786
-0.165611 -0.021393 0.333499
0.056373 0.147968 0.199519
0.279815 -0.052353 0.237701
0.086126 0.007124 -0.010430
0.242514 0.037432 0.180616
-0.019204 0.131501 -0.159120
-0.055018 -0.057829 0.262321
0.238428 -0.076668 0.407035
-0.044447 -0.071824 -0.464159
0.099944 0.188367 0.241974
-0.025433 0.072763 -0.272777
0.234806 0.135673 0.249377
0.026268 -0.042529 -0.379125
0.162255 0.032064 0.482172
0.226280 0.108390 0.326985
-0.212392 0.087063 -0.223383
-0.059618 0.104443 0.231749
0.091323 0.090146 0.159706
-0.172203 -0.018156 0.338347
0.279392 0.208573 0.042309
-0.043271 -0.045257 -0.372214
-0.029037 0.117538 0.275318
0.154846 0.010978 0.318330
-0.103984 0.088357 0.273289
-0.264622 0.015731 -0.255385
-0.057127 -0.024916 -0.406798
0.009253 0.017221 0.334394
0.070940 -0.107451 0.277251
-0.197454 -0.028808 -0.129107
0.072405 0.074468 -0.426339
0.049502 0.130305 -0.136301
-0.071594 -0.039859 0.033742
0.066164 0.060319 -0.470411
-0.041262 -0.035430 0.063923
0.138571 0.035583 0.385294
-0.092388 0.016465 -0.443525
-0.178175 0.010662 -0.326428
0.031064 -0.119604 0.222119
-0.254980 -0.002803 -0.191989
-0.204604 0.063596 0.103524
-0.115728 0.010401 -0.013043
0.160049 0.172653 0.225637
0.311052 0.047497 0.073627
0.404236 0.137826 -0.193740
-0.075115 0.084391 -0.093523
0.158311 -0.002561 0.470510
0.364660 0.000297 -0.181681
-0.030669 0.120850 -0.252921
0.028654 -0.016081 0.021770
0.136111 0.184651 0.062576
0.330505 0.063184 0.047313
0.127712 -0.070571 0.351945
0.053097 -0.009844 -0.478785
-0.062413 -0.076702 0.358180
0.303636 -0.040833 0.206659
-0.248594 -0.018809 0.149168
0.114078 0.007426 0.260323
0.330034 0.241058 -0.232503
0.364046 0.004211 -0.181947
0.214904 -0.101775 0.360609
0.367158 -0.024017 0.051002
0.261425 0.284036 -0.040196
0.150890 -0.022121 0.195238
-0.117606 0.088347 0.239524
-0.040859 -0.086066 -0.397695
-0.059260 -0.028488 -0.328486
0.130575 0.002310 0.303222
0.311329 0.318000 -0.202464
0.043934 0.023665 -0.235034
-0.064574 -0.021815 0.180855
-0.199561 0.065875 0.163315
0.196870 -0.098501 0.446148
-0.182686 0.134515 -0.156015
-0.062242 -0.056266 0.210946
0.407276 -0.050813 -0.138788
0.336986 0.176552 -0.263249
-0.226781 0.021554 0.192563
0.226497 -0.010211 0.428646
0.075576 -0.039281 0.408401
-0.070310 0.036044 0.157202
0.003687 0.024766 -0.037623
0.043684 -0.117747 0.256494
-0.069287 0.075425 -0.083010
-0.156252 -0.014461 0.372558
-0.034775 -0.069928 -0.448209
-0.100820 0.109820 0.092019
-0.006374 -0.016271 0.073938
0.355757 -0.017440 -0.035303
-0.072095 -0.051169 0.343132
-0.052683 0.051832 -0.475088
0.198240 0.250690 -0.166606
0.360259 0.142164 -0.067971
0.211869 0.209445 0.051477
0.115464 0.179577 -0.017714
-0.171665 -0.061642 0.250933
0.045371 0.019634 -0.344501
-0.131328 -0.063226 0.090051
0.154664 0.098126 -0.308229
0.102442 0.018884 -0.246648
0.322819 0.106466 -0.286017
0.202157 0.147393 0.215094
-0.021896 0.124900 0.235601
-0.036887 -0.030577 0.024235
0.166540 0.054763 0.478552
0.174057 0.125906 0.180758
-0.188930 -0.081149 -0.237986
0.088413 0.126767 0.349207
-0.014590 -0.035590 0.283334
0.224117 -0.032506 0.441023
0.306906 -0.028920 0.185162
0.019528 -0.034308 0.378332
0.075142 0.086271 0.314794
0.304619 0.242869 0.013636
0.259792 -0.007068 0.282736
0.206887 0.035842 0.308880
-0.165409 0.031195 -0.009618
-0.032695 0.095963 -0.318901
0.204605 0.066185 0.197199
0.182938 0.182257 0.073502
0.343234 0.254079 -0.238676
0.323418 0.235705 -0.144825
-0.161527 -0.015023 -0.099424
0.343016 0.322827 -0.216208
0.192698 0.184976 -0.133036
-0.095640 0.010209 -0.411739
0.313868 -0.032123 0.157070
0.382385 0.181899 -0.118966
0.076763 0.000849 0.255338
0.261598 0.133855 -0.310264
0.216011 0.005544 0.192502
0.327539 0.183407 -0.262791
-0.069449 -0.001237 0.342579
-0.164854 -0.039036 0.392172
0.242836 0.017344 -0.043497
-0.088169 -0.025458 0.321977
-0.042725 -0.032499 0.307527
-0.050600 -0.034637 -0.354523
-0.241756 -0.098700 0.364894
0.282426 0.217987 -0.220024
-0.088966 0.108428 -0.139198
0.336598 0.115370 0.047118
0.216392 0.000522 0.033935
-0.140920 0.044807 -0.005970
0.035917 -0.036759 0.439996
-0.248615 -0.100187 0.345423
0.357888 0.007871 0.079592
0.213129 0.031548 -0.094314
0.003512 0.110414 -0.304614
0.336703 0.059058 -0.248166
-0.012477 0.043539 0.112710
0.233276 0.047161 0.328809
-0.041711 0.093775 -0.244490
0.141871 -0.051734 0.207195
0.111637 -0.109766 0.467556
0.222853 0.032777 0.395738
0.137604 0.195289 0.020212
0.006676 -0.017270 0.007509
0.186217 0.057810 -0.079328
-0.156747 0.077637 -0.326754
0.152319 -0.089207 0.224181
-0.066804 0.023891 0.161087
0.048174 -0.034496 0.424701
-0.203041 -0.099872 0.398903
0.151638 0.164306 -0.182715
0.172543 0.176723 -0.254621
-0.153276 -0.026128 0.382567
-0.013193 0.042253 -0.272640
0.199716 0.189326 -0.252226
-0.110896 0.069594 0.300239
0.190913 0.168453 -0.284403
-0.076013 -0.023882 0.142902
0.148594 0.022872 -0.262872
0.264156 0.029515 0.300279
-0.192461 0.114818 -0.230994
0.257010 -0.059956 0.246283
-0.004596 0.125758 -0.132350
0.193751 0.203794 -0.132492
0.109282 0.015283 -0.017312
0.261850 -0.064149 0.258958
0.042399 -0.080051 0.467168
0.021864 0.038706 -0.413964
0.128916 -0.044972 0.246122
0.125250 0.114363 0.110722
0.182024 0.042215 0.477528
0.382984 0.005808 -0.082894
0.158833 0.136102 0.414969
0.128663 0.010222 -0.000252
-0.002956 0.039460 -0.044165
-0.184371 0.028218 -0.159254
0.249916 -0.036828 0.297569
-0.113052 -0.050507 0.049915
-0.208005 -0.093578 0.321566
0.173319 0.054888 0.095806
-0.212612 -0.032947 0.112690
-0.141013 -0.057606 0.069044
0.226660 0.049772 0.079416
-0.014556 0.040021 -0.349340
0.295565 0.296188 -0.180648
0.300011 0.297122 -0.205480
-0.085848 0.041778 -0.285832
0.074817 -0.020641 -0.412307
-0.168350 -0.004160 -0.175419
0.275461 -0.003110 0.235771
0.275370 -0.009453 -0.161267
-0.123491 -0.045898 -0.368256
-0.058647 0.026898 0.178558
0.155746 0.095513 -0.113316
0.353665 -0.015502 -0.167398
0.055264 -0.000550 0.215440
0.188943 0.042446 0.312390
0.064007 -0.101297 0.468254
0.191471 0.159203 0.290424
-0.151622 0.021031 -0.369417
0.108273 -0.091268 0.272079
0.255908 0.274358 0.041735
0.155087 0.172703 -0.204228
0.145427 0.011136 0.055230
-0.083292 -0.030337 -0.134231
0.174950 0.022599 0.178483
-0.134646 0.115422 -0.260946
-0.153102 0.090135 0.118216
0.195579 0.234174 -0.212636
0.126651 -0.134899 0.417579
0.137702 0.187311 -0.023333
0.258760 0.022289 0.009741
-0.174228 0.083706 0.123025
0.073122 0.001504 -0.432660
0.088230 -0.109474 0.467714
0.247983 0.252887 -0.190719
0.229083 0.019632 -0.112927
0.187350 0.025142 -0.165080
0.114256 0.156423 0.090393
-0.059880 -0.010158 -0.014980
0.161797 0.057389 0.098801
-0.031868 0.121194 0.255993
0.369554 0.103754 -0.252832
0.187023 0.097444 0.416164
-0.056528 0.019409 -0.294853
-0.105200 -0.072538 0.240643
0.365081 -0.045134 -0.098610
-0.147192 0.042768 -0.372569
0.147985 0.050623 0.181963
0.078290 0.008576 -0.185665
0.023151 0.007366 0.191528
0.066552 0.046055 0.172895
-0.088107 -0.045079 0.040008
-0.220801 -0.084437 0.421732
0.042499 -0.027906 -0.510277
-0.130769 -0.061786 -0.254371
0.159593 0.018332 -0.016361
0.405683 -0.050877 -0.143441
0.133832 0.159482 -0.180898
0.299192 0.297650 -0.026939
-0.157828 -0.039212 0.394855
0.004468 0.051987 -0.417332
-0.214114 0.057219 0.142646
-0.039918 0.069001 -0.317984
0.174681 0.035459 0.177239
-0.121100 -0.064546 0.110597
0.408800 0.130507 -0.170566
-0.148295 -0.012448 0.341579
0.400137 -0.055017 -0.185888
0.011492 0.066513 -0.106786
-0.003396 -0.027860 0.423086
-0.050841 0.113966 -0.266530
-0.132698 0.063766 -0.104435
0.089324 0.105457 -0.114072
0.287927 -0.015835 0.162862
0.335226 -0.025626 0.048495
-0.052588 -0.004408 -0.480290
0.160816 0.118175 -0.307298
0.062468 0.146963 -0.174207
0.286887 -0.063706 0.294635
0.225881 0.177331 -0.283669
0.133818 0.027639 0.405353
0.008851 0.006706 -0.389979
0.326024 0.210212 -0.005880
0.084647 0.166824 0.270598
0.394840 0.179915 -0.161146
-0.123311 0.073395 -0.000224
-0.174067 0.021937 -0.336237
0.024956 -0.027745 -0.360423
0.134613 0.023027 0.383796
0.102580 0.064564 -0.047415
0.058577 -0.082778 0.241186
0.111683 -0.024834 0.371335
0.317855 -0.037702 -0.117734
-0.012035 -0.012109 -0.323281
0.294760 -0.009551 0.026863
0.061207 0.125496 -0.133383
-0.030930 -0.080449 0.197968
-0.159112 -0.015284 -0.093247
0.054217 -0.133294 0.415275
0.271189 -0.066315 0.268711
-0.185139 -0.029651 -0.124015
0.149624 0.051609 -0.050216
0.181579 0.080056 -0.116707
0.188152 0.234618 -0.172619
0.015184 0.063850 0.174452
-0.068825 0.053619 -0.056487
-0.186159 -0.046644 0.260123
-0.199954 -0.043391 0.327128
0.351171 0.261399 -0.190777
0.126362 0.256287 0.319830
0.122023 0.033684 -0.034858
0.138508 0.082879 -0.301248
-0.041707 -0.005189 -0.019997
-0.086285 0.066194 -0.302306
0.169503 0.043088 -0.155564
0.331101 0.206541 -0.015209
0.195629 0.133273 0.334159
0.041742 0.082244 -0.101589
0.180501 0.091388 -0.311602
-0.268913 -0.001208 -0.165133
-0.299773 0.030632 -0.142531
-0.064637 0.076723 -0.416995
0.044189 -0.007202 0.217156
0.198714 0.072344 0.406460
0.172079 -0.071963 0.318504
-0.093504 -0.038651 -0.184270
-0.139178 -0.078571 0.172810
0.028135 -0.061046 0.369060
-0.184968 -0.022654 -0.148455
-0.012730 -0.110979 0.423908
-0.115244 0.104384 -0.271315
-0.206410 -0.085152 0.318433
-0.013378 -0.090029 0.446368
0.057411 0.062076 0.307753
0.405012 0.133784 -0.192840
-0.026460 0.076167 -0.271427
0.376526 0.076921 -0.038085
-0.171772 0.119092 -0.234518
-0.124999 -0.073190 0.151164
0.261745 -0.040354 0.334196
-0.215485 -0.040807 0.140542
0.226626 0.263447 -0.162662
-0.037622 -0.100901 0.410254
0.090692 -0.102776 0.370082
0.023798 -0.012141 -0.497698
-0.182652 0.079564 -0.182276
0.022700 0.109401 0.300652
0.142799 0.212840 0.012834
0.074935 -0.007693 -0.466585
-0.059075 0.005498 -0.283912
0.061749 0.098981 -0.108411
0.213170 0.148643 0.304227
0.104936 -0.115429 0.371962
0.265400 -0.020940 0.342535
0.027898 0.002358 -0.190706
0.259469 -0.003552 0.187248
-0.152709 -0.037009 0.326363
0.046178 0.129618 0.184184
-0.009691 0.104566 0.107025
0.252770 0.007102 0.191094
-0.194348 -0.003854 0.035246
0.054992 0.074211 -0.063815
-0.193181 0.011905 -0.294568
0.275060 -0.031079 0.190057
-0.215915 -0.006315 -0.269719
0.053907 0.156782 0.285043
0.136908 0.171509 0.356551
-0.144468 -0.044450 -0.159322
0.013079 0.055072 -0.049456
-0.200755 0.056794 -0.244973
-0.014810 0.017303 -0.233965
0.118361 0.125883 -0.287208
0.363238 0.043741 0.049387
-0.022062 0.013554 -0.337169
0.094356 0.187974 0.251852
-0.174347 -0.051855 -0.166101
0.165172 0.054644 -0.057157
0.060554 -0.084085 0.245341
0.233227 -0.026104 0.247683
-0.230518 0.094465 -0.274039
0.009512 -0.005808 0.302008
0.089510 0.009899 0.275651
0.379026 0.137774 -0.097726
0.262774 0.236387 -0.205748
0.121851 0.239630 0.315321
0.027252 0.053452 -0.247557
-0.065475 0.013330 0.166233
0.052687 -0.048388 -0.368006
-0.037781 -0.006063 -0.019128
0.183683 0.228237 0.038432
0.150900 -0.130639 0.411638
0.088417 0.024301 0.299208
0.336468 0.131442 0.037837
0.012076 0.126111 -0.220844
-0.072783 0.109180 -0.001914
0.077526 0.152500 0.319468
0.096392 0.030405 -0.034524
0.340395 -0.030870 -0.075429
0.091636 0.099173 -0.062867
0.344582 0.319529 -0.241292
-0.091750 0.073664 -0.356599
0.031788 0.096440 0.111671
0.237945 0.104737 0.222865
-0.153006 -0.042375 -0.319007
-0.126106 0.065970 -0.361910
0.316862 0.252914 -0.133174
-0.154955 0.090245 -0.308427
-0.028060 0.070851 0.119395
-0.175417 -0.060933 0.094983
-0.179579 -0.056605 0.090692
-0.178056 0.067378 -0.319653
0.111284 0.176481 0.068889
-0.239601 -0.104236 0.340508
-0.065600 0.074521 -0.030543
-0.225372 -0.039819 0.201326
-0.086617 0.005094 -0.494270
0.171753 0.045473 0.180959
0.128100 -0.004411 0.317561
-0.017673 0.090957 -0.288895
0.093367 0.153558 -0.211984
0.031668 0.004892 -0.167435
0.066255 0.042875 -0.423170
0.119974 0.066180 0.371013
0.079991 0.122605 -0.267677
0.182093 0.175893 -0.266465
0.422464 -0.036079 -0.176321
-0.197906 -0.041438 0.386584
0.109611 0.009726 0.428295
-0.036757 0.064285 0.188367
0.316534 0.251965 -0.116926
0.294424 0.290483 -0.095034
0.199209 0.144503 0.207719
0.195873 0.210780 -0.031701
-0.108211 0.108862 0.033763
0.359166 -0.003284 -0.176943
0.218590 0.265011 0.007698
0.083238 -0.094317 0.272259
-0.035345 -0.041640 0.291338
-0.173306 0.016426 -0.170486
0.253784 -0.060681 0.346949
-0.139775 0.058395 -0.104736
-0.233117 -0.041375 0.196992
-0.075479 0.053848 -0.102414
0.104624 0.011517 0.221950
0.006544 -0.030234 0.404051
-0.221027 0.082312 -0.274008
-0.201904 0.046397 0.071140
0.246342 -0.061967 0.279883
0.199175 -0.067438 0.242410
0.308994 0.275023 -0.215930
0.115281 0.009724 -0.008144
0.319028 -0.042908 0.153083
-0.172284 0.135630 -0.147905
0.073377 0.133892 -0.253948
0.229691 0.062746 0.331391
0.137438 0.046271 0.393143
0.150067 -0.130352 0.440349
0.281478 0.198262 -0.263539
0.380245 0.162562 -0.234838
-0.080098 0.081020 -0.093367
0.212137 -0.068301 0.445076
-0.075570 0.094278 -0.110842
0.203524 0.155085 0.229587
-0.139239 0.058641 0.291248
-0.022818 0.108591 0.209302
0.012874 0.073349 -0.331589
0.150376 0.064749 0.176108
-0.060389 0.007558 -0.499157
-0.250896 0.013590 -0.221258
-0.109189 -0.059843 -0.235287
-0.021117 -0.009679 0.329155
-0.123621 0.105159 -0.267764
0.236484 0.040479 0.226999
0.194052 0.240155 -0.146600
0.060852 0.157813 0.213461
-0.031658 0.123822 -0.007248
0.315714 0.265540 -0.097132
-0.065218 -0.084568 0.403688
0.026764 -0.081316 0.369277
-0.122990 -0.007353 0.336626
0.085758 0.175935 0.055956
-0.150793 0.094058 0.091773
0.385587 0.087026 -0.055586
0.100113 0.172293 0.263628
-0.064948 -0.036858 -0.484021
0.062294 -0.081102 0.470905
0.084199 -0.124408 0.286692
-0.036651 0.107644 -0.230163
-0.033723 0.116094 -0.014172
-0.208072 -0.042342 0.344675
0.087526 0.150204 0.187706
0.127248 0.116431 -0.130463
-0.022263 -0.023485 0.073881
-0.124294 0.139069 -0.180033
0.210634 0.032768 0.286241
0.082964 0.164661 0.262370
0.184886 0.231720 -0.194596
0.231755 0.018422 -0.103415
0.378147 0.198206 -0.183192
-0.093253 0.045211 -0.108932
-0.119689 -0.052933 0.056455
-0.049191 0.131060 0.072209
0.122230 0.003675 0.323361
0.298439 0.146146 0.073010
0.141914 0.140713 -0.289278
-0.021653 0.104103 -0.309470
-0.144506 -0.057096 0.375085
-0.227490 0.103210 -0.164458
0.316551 0.264354 -0.051942
0.243588 0.029007 0.214865
0.150110 -0.025319 0.297649
0.259357 0.257041 -0.173032
0.115532 0.136835 -0.146991
-0.010899 -0.038866 0.266007
0.191318 0.131832 -0.309542
-0.228163 0.035265 -0.236709
-0.039012 0.010227 -0.312800
0.335048 0.317635 -0.196155
0.234189 0.242432 -0.039670
-0.231507 0.097385 -0.186111
0.025123 0.071485 0.173148
0.175722 0.017791 -0.180742
0.364186 0.022939 -0.086325
-0.139306 -0.039873 -0.348325
0.327419 -0.013141 0.030435
0.377328 0.056288 -0.087734
0.205482 -0.050852 0.307573
0.131549 0.010586 -0.206405
0.128209 -0.135268 0.436800
0.375761 0.116679 -0.069078
-0.234896 0.100611 -0.273041
-0.097936 -0.057078 0.151390
-0.116513 -0.040886 -0.373297
0.235196 0.275232 0.038739
0.115626 -0.145801 0.235566
-0.113797 -0.041435 0.030993
0.369479 0.211661 -0.154148
-0.156605 0.029936 -0.148625
0.400281 0.107794 -0.202506
-0.223323 0.004229 -0.195483
-0.084784 -0.066161 0.261016
-0.005054 0.031615 -0.117999
-0.063912 0.048126 -0.293004
0.372064 0.021061 0.044612
0.266736 0.007589 0.286700
0.130295 0.168991 0.365745
0.165210 0.101545 0.109745
0.121844 0.194819 -0.004854
-0.095023 0.000240 -0.014303
0.253257 0.071772 0.239799
0.029513 -0.124980 0.399258
0.269927 0.051518 0.172081
0.243242 0.128288 0.094619
0.267151 0.010898 0.228744
0.133688 -0.120840 0.458017
0.030389 -0.042439 -0.375800
0.380401 0.247933 -0.250367
0.163587 -0.076440 0.291769
-0.280860 0.002632 -0.240734
-0.031346 0.106521 -0.223578
0.182303 -0.118748 0.435770
-0.106390 0.071650 -0.097748
-0.051510 -0.040103 -0.469660
0.174941 0.034212 -0.161571
-0.050193 0.040953 -0.040531
-0.115722 0.090983 0.126819
-0.075728 0.046400 -0.048681
0.321616 0.066762 0.047593
0.373618 0.025551 -0.187333
0.287294 0.270492 0.035072
0.129564 0.173397 0.219498
0.114471 -0.028162 0.468155
-0.047609 -0.047664 0.350866
-0.023467 0.011758 -0.131457
0.349703 0.207335 -0.062045
0.181613 0.222186 -0.200174
-0.051740 -0.065804 -0.475214
0.132290 -0.082726 0.472855
0.251400 0.096484 -0.308627
0.160330 0.110482 0.442105
0.351064 0.094416 -0.268731
0.037621 -0.047490 -0.333266
-0.197184 -0.097684 0.361674
0.210716 0.154035 0.294887
-0.088781 0.083356 -0.352513
0.156440 0.097336 -0.109437
-0.030605 0.028600 -0.037066
-0.251158 0.002428 -0.169582
0.221844 -0.029191 0.238222
0.301285 0.015392 0.174111
0.254034 0.008545 0.326667
-0.077994 -0.077658 0.394562
-0.179205 -0.034141 0.306523
0.212904 -0.105580 0.252835
0.188587 -0.104266 0.291317
0.304797 0.200605 -0.256205
-0.224156 0.006412 0.068237
0.216113 -0.028018 0.316414
0.244552 0.013862 0.059856
-0.220734 0.046612 0.129714
0.277481 -0.055045 0.251132
-0.148837 0.132918 -0.149050
0.387289 0.078377 -0.070452
0.019953 0.005050 -0.023255
0.213630 0.132814 0.211400
0.126390 -0.072057 0.473289
0.086896 0.009546 0.218582
0.321604 0.289346 -0.235988
-0.088526 -0.062623 0.194483
0.250792 -0.006976 0.214648
0.169757 0.177197 -0.203178
0.058223 -0.057405 -0.426710
-0.098085 0.114975 0.037995
0.156731 -0.149074 0.253273
0.042717 0.131866 0.096707
0.040081 0.020916 0.092105
0.260030 -0.025626 0.212991
-0.157851 0.027680 -0.020637
0.024729 -0.033829 -0.391686
0.030929 0.007206 -0.321400
0.242906 0.092951 -0.311062
0.134693 0.049982 0.376738
0.037655 0.059131 -0.253989
0.084909 0.014086 0.078453
0.357900 0.101362 0.007850
-0.072640 -0.046860 0.299454
0.227763 -0.092123 0.267658
0.409621 0.038943 -0.093539
-0.105350 0.092318 0.240959
-0.032971 -0.013019 0.327819
0.188889 -0.066060 0.460027
-0.115716 -0.055088 -0.230915
-0.156727 -0.053034 0.064496
0.309947 -0.011402 0.049804
0.234403 0.058543 -0.300137
0.380240 0.022630 0.024572
-0.206038 -0.041262 0.363161
0.025431 -0.010956 -0.502868
0.267057 0.288404 -0.038429
0.405974 0.146514 -0.172576
-0.074503 0.090812 -0.333762
-0.027214 -0.020557 0.400252
-0.220398 -0.030535 0.124675
0.130562 0.158721 -0.256356
-0.204042 0.000053 0.261174
0.218237 0.063452 0.388659
-0.132765 0.048497 -0.115345
0.064535 -0.085328 0.251619
-0.084042 -0.042200 0.409444
-0.107225 0.111392 0.050840
0.019739 -0.031289 0.426772
-0.080434 -0.041571 0.173107
0.304243 0.072027 -0.285911
0.207813 0.219228 -0.009182
0.032391 0.076504 0.113984
-0.217244 -0.052747 0.359424
0.267816 0.012221 0.021973
-0.142681 -0.043346 0.040454
0.225598 -0.077583 0.428119
0.186984 0.124161 0.186063
0.362513 0.178492 -0.242189
0.147949 -0.127320 0.295155
-0.046164 0.022372 -0.440223
0.174901 0.078199 -0.129268
0.036474 0.162016 0.054961
0.029192 0.033497 -0.460948
0.028897 0.048403 -0.334334
0.242183 0.068893 -0.305644
-0.143476 -0.058050 0.365295
-0.053741 -0.090317 -0.407582
0.388757 0.046666 -0.178597
-0.293047 0.005311 -0.250524
0.334125 -0.005756 -0.159030
-0.007620 -0.004112 -0.265569
0.235430 -0.001031 -0.169856
0.215335 0.055818 0.320642
0.348311 0.321891 -0.224435
0.067514 -0.133783 0.431042
0.304866 0.275062 -0.005577
-0.102550 0.138648 -0.153773
0.318103 0.248110 -0.059967
0.269764 0.205438 -0.254779
-0.071218 -0.017161 0.142993
0.236634 0.270662 -0.002507
0.042573 -0.049036 -0.404806
0.288487 0.002672 0.004216
-0.028246 -0.045157 0.276619
0.222932 0.247068 -0.077203
-0.054406 -0.022924 0.409370
0.241706 0.128347 0.268607
-0.183041 0.140617 -0.148728
-0.102469 -0.059437 0.139362
0.040724 -0.045980 -0.417655
-0.062553 0.027721 0.175506
0.165488 0.124387 -0.130452
-0.124621 0.067374 0.290619
-0.138398 -0.025679 -0.369725
0.003204 0.105922 -0.114209
-0.202345 -0.039784 0.280915
-0.110285 0.090690 -0.331599
0.445453 -0.015366 -0.153831
0.101598 0.027198 0.322941
-0.082637 0.106106 0.103950
0.117300 0.026515 -0.264272
0.232256 0.084155 0.215463
-0.147968 0.051903 -0.371092
-0.147216 -0.031020 -0.346952
0.308749 0.318668 -0.220880
-0.022998 0.097438 -0.104451
0.268566 -0.011875 0.057484
0.214177 -0.072595 0.240499
0.119433 0.209279 0.320265
0.179490 -0.041926 0.278687
0.351960 0.246534 -0.181404
-0.082461 -0.041831 -0.375283
-0.213562 -0.058666 -0.204987
0.208423 -0.100533 0.245978
-0.269741 0.010781 -0.265089
0.368178 -0.049773 -0.172029
0.174659 0.027417 0.323567
-0.139955 -0.001707 -0.386384
0.155135 0.066231 0.102833
0.168871 0.199862 -0.034315
0.083503 -0.133969 0.439566
0.061283 -0.035244 0.420382
-0.131410 0.124924 -0.224199
0.055670 0.138377 0.095065
0.139231 0.107446 0.420900
0.237969 0.012679 -0.091293
-0.005644 0.112194 -0.117994
-0.012613 -0.017540 -0.195879
-0.206399 0.041677 -0.227542
0.111270 -0.077876 0.228262
0.111336 0.097975 0.114234
-0.095488 0.021274 0.328321
0.126245 0.175248 0.224320
0.096058 0.122910 -0.135607
0.254150 0.106202 0.095062
0.220096 0.032171 -0.276655
0.130014 0.091422 -0.121006
-0.070706 0.036162 0.329083
0.188453 -0.118130 0.379470
-0.032095 -0.019024 0.399802
0.355694 0.326709 -0.235390
0.185373 0.064047 -0.084355
0.093374 0.178665 0.051218
-0.044238 -0.017929 0.190016
-0.052932 -0.005351 0.345117
-0.059781 -0.034014 -0.454291
0.084074 0.164395 0.213378
0.437477 -0.019481 -0.105215
-0.192452 0.037321 -0.154141
0.178979 0.184477 -0.188647
-0.105815 0.070536 -0.013160
-0.029441 -0.046092 -0.408459
0.002385 0.060049 -0.054507
-0.016574 0.106155 -0.275050
0.048866 -0.069652 0.468896
-0.051260 0.103767 0.286148
0.075232 -0.007717 0.037143
0.412319 -0.034988 -0.083856
-0.075060 -0.060398 -0.495791
0.152273 0.122628 -0.135254
0.139225 0.261798 0.313236
0.295089 0.262391 0.029714
0.247934 -0.073744 0.359542
0.151177 -0.144550 0.243741
-0.117826 -0.060762 0.279138
-0.083827 0.012078 0.332654
0.041788 -0.028358 -0.527727
-0.042385 0.070546 -0.090694
0.365445 0.052915 -0.200884
0.275953 0.011354 0.208557
0.276046 -0.000696 0.224937
0.376649 0.070162 -0.212996
-0.144472 -0.041591 0.293341
-0.141944 0.084964 0.024687
-0.180191 -0.027650 -0.256867
0.206955 0.029971 -0.145134
-0.171043 -0.066371 0.105649
0.121447 -0.053797 0.471487
0.357324 -0.016796 -0.170776
0.038356 0.040095 -0.124896
-0.058947 0.129806 0.034250
-0.041526 -0.082882 -0.460367
0.219336 0.219730 -0.238469
-0.125415 -0.045054 -0.162101
-0.002482 0.017591 -0.127916
-0.086189 0.101600 -0.127010
-0.208807 -0.044290 -0.126031
-0.046532 -0.061433 0.351735
0.269248 -0.049486 0.218802
-0.071406 -0.034649 -0.272876
-0.086911 -0.000165 -0.504468
0.143633 0.114790 -0.124455
-0.218281 0.039325 -0.226210
0.174824 0.172009 -0.169484
-0.073821 -0.069886 -0.324116
0.228706 0.001813 0.007947
-0.062384 0.013977 -0.121756
0.194622 0.013950 -0.207665
-0.071614 -0.033813 0.413071
-0.154859 -0.042424 -0.120222
0.177044 0.079138 -0.308079
-0.067876 0.063557 -0.339193
-0.059529 -0.007271 0.124498
-0.086753 0.112343 0.013233
0.127187 -0.085222 0.355653
0.049169 0.070095 0.166449
0.022701 0.050819 -0.425668
-0.003528 -0.019762 0.066841
0.013854 0.118396 -0.232196
0.282049 -0.055870 0.260125
-0.071232 -0.041162 -0.269624
-0.233540 0.017576 -0.272806
0.279739 0.009874 0.200495
0.043911 0.149875 0.259094
-0.171457 0.074098 0.189337
0.269771 0.037846 0.197494
-0.220827 0.091550 -0.186505
-0.097616 0.043580 -0.381740
0.226487 0.145866 0.276982
-0.022353 0.007439 0.186657
0.125650 0.159794 -0.192311
-0.250307 0.121219 -0.152113
0.160296 0.253603 0.320049
0.159538 0.062053 -0.145490
-0.105231 0.008745 -0.015745
-0.186483 -0.057568 0.107047
0.335778 0.133660 0.016566
-0.102187 -0.013560 -0.409569
0.191735 0.208078 -0.043632
0.353109 -0.024780 0.030540
0.058147 0.133577 -0.141699
-0.068313 -0.034588 0.342104
-0.081286 -0.048607 0.070997
-0.058797 0.009194 -0.449687
0.143460 0.252520 0.335183
0.031036 0.142512 -0.182178
-0.199958 0.134757 -0.124189
0.047101 0.105745 0.173604
-0.041490 0.082821 0.197598
-0.106857 0.079321 -0.007060
-0.227636 -0.014862 0.228910
-0.183946 0.024183 0.024933
0.192393 0.151624 0.210504
-0.055668 0.052072 -0.103063
0.251696 -0.057736 0.281773
-0.091408 0.070897 -0.094795
0.271731 -0.065175 0.292949
-0.126900 -0.054407 -0.215010
0.328864 -0.014735 0.026911
0.128584 0.139070 -0.149617
0.019375 0.045968 -0.045766
-0.117002 0.073888 -0.005198
0.299562 0.226825 -0.185765
0.043365 0.107807 -0.042282
0.344879 0.327137 -0.229001
-0.094049 0.087747 -0.007491
0.096076 0.010166 -0.183961
-0.043908 0.020606 0.183244
0.403652 0.085656 -0.146397
0.168400 0.067601 0.102011
0.019492 -0.108939 0.237489
0.108645 0.023089 0.299760
0.367331 0.020742 -0.025877
0.171625 0.138072 0.336636
0.220011 0.163892 0.087497
0.143798 0.022592 0.467634
-0.253063 0.000790 -0.207864
0.281436 -0.031472 0.278433
0.030692 0.007330 -0.474689
0.122504 0.095988 -0.299039
-0.050000 0.028523 0.125156
0.072445 0.029489 0.184598
-0.060549 -0.033747 0.094095
0.262146 -0.025969 0.206048
-0.161713 0.052196 0.018509
0.262322 0.292672 0.018930
0.163049 0.228323 0.017809
0.178971 0.200495 0.049089
-0.013395 0.067227 0.184125
0.169840 -0.140357 0.266463
-0.120500 -0.058216 0.342967
0.176309 0.168935 -0.162889
0.187610 0.015029 0.036977
0.339029 0.188671 -0.034730
-0.136192 0.118630 -0.249924
-0.071472 -0.073149 0.356414
-0.196725 0.043825 0.237571
0.292811 0.223940 0.012388
-0.040616 0.097864 -0.246135
-0.198353 -0.008617 -0.236936
0.148542 -0.100349 0.351288
0.017018 0.072382 0.313266
0.069108 -0.094859 0.267852
-0.120988 -0.077132 0.220749
0.257576 0.006560 -0.047412
-0.197568 -0.063846 -0.242811
0.100080 0.139777 -0.263978
0.098859 -0.000411 0.011924
0.428113 0.048314 -0.130680
-0.127031 -0.001103 -0.003092
0.249166 0.070938 0.235649
0.410270 -0.022727 -0.181796
0.145085 -0.138588 0.290663
0.164698 -0.007384 0.186061
-0.011507 0.132442 -0.182889
0.084917 0.082711 0.159499
0.026755 0.120409 -0.031274
0.242608 -0.080863 0.377220
0.232012 0.013217 -0.204919
-0.182708 -0.036420 0.302486
-0.129948 0.008095 -0.006161
0.197748 -0.057170 0.236384
0.192629 0.038287 0.317881
-0.185659 -0.020245 -0.255580
0.138760 0.188059 0.262087
0.213669 0.238365 0.047616
0.032294 0.008249 0.194000
0.267901 0.015050 0.220967
0.178400 -0.052176 0.285271
0.370761 0.014433 -0.185326
-0.031583 -0.074757 -0.391938
-0.242304 -0.021086 0.197051
-0.152892 -0.064916 0.408044
-0.099493 0.041625 0.322277
0.119509 0.012216 -0.011553
0.240383 -0.036607 0.242414
0.002358 -0.001388 -0.370327
0.379001 0.190909 -0.208452
0.078769 0.163495 0.294909
-0.242635 -0.012622 0.099286
0.004215 0.060109 -0.108174
0.390461 0.174027 -0.134095
-0.065808 0.024689 0.151801
0.057145 -0.007849 -0.481240
-0.081580 -0.036732 0.138865
0.079916 0.132263 -0.141300
-0.207524 0.061569 0.150511
-0.044789 -0.040405 -0.394471
0.012202 0.128428 0.205683
0.102384 0.171475 0.229153
-0.172529 -0.049353 0.071274
0.186639 -0.043867 0.460259
0.003947 0.109122 -0.030159
-0.180194 -0.041895 -0.203327
-0.040435 0.041032 0.182663
0.074854 0.170433 0.000431
0.340771 -0.023875 -0.151388
0.190177 0.136910 -0.306749
-0.185968 0.061275 0.216555
0.142633 0.162793 -0.184065
0.074621 0.008020 -0.186762
-0.214795 0.038894 0.095756
0.071013 0.162966 0.244779
0.198154 0.025492 -0.050644
-0.218595 -0.023987 0.107327
-0.244862 -0.024991 0.206637
0.350843 0.051680 -0.219379
0.104488 0.182782 0.305707
-0.170359 -0.076949 0.186195
0.214971 0.195135 0.062728
-0.015793 0.106895 -0.308877
0.116946 -0.019724 0.431232
0.063687 0.160847 0.219649
0.240007 0.170482 0.081064
0.072926 0.079714 -0.443384
0.149868 -0.015145 0.254842
-0.233958 0.036051 -0.213547
0.335346 0.022869 -0.199899
0.271196 0.298444 0.004133
0.259178 0.010199 0.266865
-0.178041 0.093149 -0.166429
0.129216 0.058130 0.385107
0.105732 -0.146422 0.284425
0.274727 -0.052629 0.236270
0.167640 0.175123 -0.199360
-0.116168 -0.016381 0.384148
-0.104202 0.039254 -0.382645
0.078603 0.042145 0.175358
0.229338 0.229636 0.050979
-0.042674 -0.052845 -0.335620
0.159263 0.154514 -0.158587
-0.031852 -0.055082 0.356455
0.362456 0.111317 -0.041008
0.260469 -0.051324 0.367787
0.240518 -0.029938 0.243809
0.239030 0.016257 -0.074675
-0.230546 -0.038229 0.210655
-0.187319 -0.088287 0.407055
-0.083434 -0.036548 -0.501497
0.038010 -0.032269 -0.401039
0.267037 0.095234 0.090254
0.353680 0.315852 -0.230074
0.213446 0.013479 -0.188224
-0.227579 0.101090 -0.198207
0.196592 0.017740 -0.020861
0.220223 0.261754 -0.119938
0.180328 0.113256 0.376439
-0.041248 0.073540 -0.321276
0.222386 0.197447 -0.255219
0.173614 0.040525 0.178324
0.093331 0.090948 0.348650
0.099698 0.016302 0.078538
-0.057222 -0.037895 -0.262183
0.144488 0.116821 0.423388
0.404650 0.006140 -0.080450
0.246163 0.273968 0.041086
0.071387 0.017931 -0.437896
-0.090982 0.036729 -0.294520
0.351709 0.170835 -0.066034
0.286185 0.212341 -0.239103
0.023910 0.148796 0.081294
0.157503 0.241975 0.330743
-0.214645 -0.058744 0.396077
-0.008774 0.038063 -0.043555
0.038500 0.012735 0.312860
0.019457 0.009844 -0.423698
-0.110482 0.095327 0.009307
-0.251365 0.000457 -0.242868
-0.078159 0.066716 -0.091085
0.138805 -0.033278 0.256107
0.118868 0.141711 0.378195
-0.075472 -0.024115 -0.132072
-0.190174 0.137030 -0.137507
0.202733 0.246846 -0.198677
-0.182263 -0.073398 0.180959
0.201380 -0.034516 0.453539
0.344319 -0.027022 0.049170
0.090891 0.048861 -0.272418
0.064150 0.123969 -0.039854
-0.011723 -0.019965 -0.210578
-0.075602 -0.035082 0.014134
-0.005542 -0.035201 0.225584
0.117936 0.006637 0.003159
0.280897 0.034233 -0.255949
-0.163155 -0.052219 -0.180139
0.141806 0.193862 0.282174
0.188265 -0.117595 0.248533
-0.220865 0.013531 0.095999
-0.090762 0.138181 -0.171001
0.046702 0.043281 -0.359056
-0.165200 -0.052974 -0.267424
0.376868 0.129769 -0.245023
0.313816 0.135305 -0.292079
0.205543 0.094229 0.373919
0.135098 0.137996 -0.056523
-0.114984 -0.048187 -0.205740
0.031596 0.000793 0.294370
0.273608 -0.000871 0.255412
-0.195515 0.113128 -0.213566
0.237779 0.128605 -0.313293
0.066805 -0.141088 0.225563
-0.022271 -0.021874 0.394825
0.304776 0.206087 0.032300
0.191147 0.181118 -0.140886
0.100111 0.100259 0.161231
0.159760 0.249094 0.324704
-0.065474 -0.016660 0.175144
-0.193638 -0.040394 0.087525
0.406105 0.090628 -0.149110
-0.077007 0.029185 -0.342377
0.157370 0.175516 0.264284
0.024063 -0.049117 0.368363
-0.208484 0.029186 0.237226
0.212140 -0.063848 0.302806
-0.099243 -0.003629 0.344160
-0.125354 0.071243 0.286101
0.418052 -0.040034 -0.106415
0.000679 -0.043949 0.363395
0.128264 0.014159 0.452510
-0.090106 0.035038 -0.288724
0.055707 0.076741 -0.111344
0.262307 0.013251 0.271806
0.396666 -0.043336 -0.074351
0.347817 0.109989 0.022460
-0.061951 0.006744 -0.411101
-0.271029 -0.007942 -0.250452
0.045018 -0.103476 0.216193
-0.138364 0.083158 -0.332067
-0.101692 0.003827 -0.111946
-0.023544 0.095963 0.112303
0.118929 0.037553 -0.155766
-0.014383 0.061438 -0.340131
0.219908 0.258449 -0.108335
0.035669 0.137160 0.278793
-0.173733 -0.037090 0.055437
-0.105137 -0.025501 -0.382379
0.273583 0.033440 0.190365
0.098001 0.147515 -0.251290
-0.195129 0.016610 0.264746
-0.294687 0.019850 -0.121303
0.219684 0.013193 0.341247
0.254782 0.026133 0.255506
0.039078 0.016701 0.089273
0.167900 0.135074 -0.077389
0.121230 -0.136166 0.410003
0.423223 -0.027457 -0.095640
0.060570 0.164301 0.071705
0.336516 -0.024537 0.065146
0.376834 0.085988 -0.237043
-0.207096 0.034086 0.231587
0.037042 0.135019 0.293066
0.240854 0.267788 -0.127708
0.355696 0.235485 -0.238887
0.215613 0.052673 0.202995
0.011872 0.048069 -0.114738
-0.035419 -0.067674 -0.363346
0.238185 0.238710 0.049173
0.132983 0.186801 0.247189
-0.078972 0.048109 0.157743
-0.190219 -0.079642 -0.231489
0.021688 -0.025250 -0.354762
0.192135 0.021286 -0.168159
-0.007135 0.108533 0.297080
0.045548 -0.120802 0.226457
0.242152 -0.081475 0.360584
0.122901 0.143137 0.102377
-0.192557 0.033471 -0.159597
-0.223390 -0.015058 0.234710
-0.096448 0.095645 -0.275715
-0.099912 -0.064440 0.171951
0.212036 0.038586 0.189916
0.226749 0.022757 -0.110577
-0.106078 -0.073831 0.209040
0.091270 0.009120 -0.214331
-0.032248 0.090570 -0.088876
-0.066362 -0.060134 0.267016
-0.077557 -0.071981 -0.483340
0.079312 0.070479 -0.441642
0.042539 0.123318 -0.245232
0.227958 -0.008101 0.211088
-0.044335 -0.051686 0.276603
0.361677 0.102389 -0.257846
-0.139111 -0.052015 -0.325189
0.093570 0.130465 -0.141058
0.145542 0.155281 0.383049
0.086931 0.104529 0.350172
-0.041879 0.090089 -0.322080
-0.050361 0.054139 -0.466802
-0.184077 -0.045253 -0.191708
-0.117742 0.038407 -0.381156
-0.149259 0.055446 -0.368514
-0.084228 0.090258 -0.355648
-0.197909 -0.039897 0.281671
-0.054377 -0.026054 -0.390961
-0.052608 -0.024407 -0.275275
-0.016531 -0.001355 0.341963
0.140068 0.128660 -0.141742
0.132372 0.127477 -0.059506
