0.122839 0.339136 -0.024919
-0.016468 0.052910 0.330977
-0.227372 0.119839 0.041132
-0.111260 -0.029096 0.333422
0.031536 -0.097860 0.235921
-0.105833 0.288926 -0.259251
0.166554 -0.069820 -0.097726
-0.046425 0.491364 -0.054545
-0.227370 -0.280294 -0.036449
0.091411 -0.399420 0.078371
-0.034513 -0.013557 0.131743
0.007601 0.062301 0.276265
0.090132 0.281774 -0.222071
-0.071591 0.059032 0.277940
-0.206326 0.369555 -0.095854
-0.187146 -0.053409 0.000990
-0.211430 0.202427 0.169404
0.176391 0.427992 -0.169405
0.012146 0.243305 0.269446
-0.149924 0.368856 -0.154192
-0.075788 -0.126757 0.305164
-0.268667 0.294898 -0.038529
-0.170438 0.437576 0.130364
0.169214 0.062130 -0.116043
-0.116077 -0.427138 0.274662
-0.137639 0.157563 0.384817
-0.239377 -0.318063 -0.047237
-0.222537 0.409286 -0.021902
-0.282003 -0.226908 0.128801
0.115381 0.284736 -0.001394
-0.089185 0.084879 0.247386
-0.128091 -0.186444 -0.134914
0.065197 -0.197312 0.125422
-0.161761 0.274201 -0.260458
-0.001267 0.499316 0.094338
-0.303637 0.013745 -0.189347
-0.119799 -0.180724 -0.034246
-0.079889 0.059524 0.177015
-0.046116 0.219856 0.384346
-0.149742 -0.124651 -0.249124
-0.128686 0.377913 0.395363
0.083280 -0.162264 0.118030
0.168068 0.324392 -0.348077
-0.044364 -0.204372 0.238833
-0.263631 0.158406 0.108741
0.176416 0.139689 -0.143893
-0.186158 -0.465471 0.298839
0.099251 0.223458 -0.251490
-0.134521 -0.424033 0.300914
-0.114373 -0.094584 0.358500
-0.069710 0.106418 0.169599
-0.052272 -0.061645 -0.314102
-0.065999 -0.249591 0.156893
0.102295 0.282369 0.030560
0.052596 0.091319 -0.304120
0.163283 0.285825 -0.095175
-0.129052 0.484948 0.128750
0.062759 0.055834 0.148325
-0.041487 -0.301953 0.139122
0.207114 0.271210 -0.233740
-0.334289 -0.368512 0.059259
0.210996 0.235561 -0.238727
-0.026695 0.494749 0.156926
0.151439 -0.433503 -0.036889
-0.160941 0.192367 0.357008
-0.289470 0.227699 -0.057148
-0.286635 0.397939 -0.038271
-0.275569 0.026501 -0.064784
0.186911 -0.121808 -0.144621
-0.180073 0.329322 0.142064
-0.184860 -0.179801 0.160508
-0.210418 -0.181026 -0.155875
-0.046512 0.156727 0.391098
0.040802 -0.463020 0.039952
-0.041480 0.015692 0.123619
-0.097386 0.003223 -0.325355
0.097951 0.053160 0.059929
0.067352 -0.206990 0.118663
-0.084561 0.026856 0.390027
0.091368 0.337459 -0.237290
-0.312591 -0.274276 0.024756
0.096351 -0.189257 -0.224705
-0.081880 -0.007137 -0.324518
-0.229653 0.370353 -0.003777
-0.062997 0.077711 0.166354
-0.096917 0.503003 0.218595
-0.005894 -0.188005 -0.247795
0.052125 0.309388 -0.223929
-0.399067 0.248422 -0.216441
-0.264136 0.024176 -0.037188
0.184865 -0.397128 -0.121672
0.011104 -0.232779 -0.213265
0.070269 -0.028168 0.134301
-0.088017 0.502991 0.132095
0.088724 -0.006947 0.088244
-0.254847 -0.468455 0.203664
-0.055417 -0.380641 0.069064
-0.028551 -0.149232 0.368344
-0.220157 -0.356449 0.201710
0.020980 0.257875 0.241637
-0.211152 -0.014989 0.004280
-0.154901 0.021428 0.351244
-0.215590 -0.436899 0.300107
-0.268635 0.339812 -0.097578
-0.178716 0.430925 0.278256
-0.062739 0.503267 0.114661
-0.008448 0.478141 -0.144595
0.130619 -0.021279 -0.016051
-0.105327 0.157420 0.301375
-0.111763 -0.375222 0.170392
0.021126 0.000099 -0.309455
-0.360002 0.184410 -0.218720
0.122042 -0.406475 0.040071
-0.171021 -0.512219 0.207945
-0.134448 0.185367 -0.312583
0.173420 -0.328985 -0.070444
0.117020 -0.183939 -0.217450
-0.308696 0.031703 -0.190033
0.135007 0.386508 -0.275267
0.181840 -0.156707 -0.128116
-0.064948 0.351717 -0.295617
-0.111895 -0.189240 0.037772
-0.221054 -0.389424 -0.039060
0.139363 -0.387490 -0.005762
-0.034721 -0.110387 0.204302
-0.001732 0.357766 0.272454
-0.338438 0.063157 -0.208451
0.023451 -0.335290 0.091570
-0.049089 0.203582 -0.312364
-0.241273 0.205074 0.099001
-0.079807 0.017351 0.209064
-0.158562 -0.360100 0.260247
-0.113474 -0.045609 0.342372
0.112608 -0.475588 -0.046286
-0.191397 0.272210 -0.246247
-0.166493 -0.370099 0.249704
0.027069 0.442682 0.195285
-0.170841 0.429051 -0.029430
0.161760 0.113063 -0.100109
-0.153804 -0.452970 -0.043711
0.158096 0.272753 -0.083306
-0.309764 0.257395 -0.136779
-0.127497 -0.228727 -0.009521
0.038561 0.346329 -0.211251
-0.324454 -0.283369 0.065357
0.067648 0.494615 -0.136458
-0.191307 -0.205204 0.046847
-0.135340 0.175084 0.319428
0.184132 -0.136341 -0.136060
-0.115946 0.291809 0.432963
-0.165886 0.236859 0.383874
0.113231 -0.263494 0.049404
-0.079393 0.027707 0.232018
0.006947 -0.085608 0.187519
-0.258125 -0.185048 0.166624
0.035255 0.473893 -0.042066
-0.124542 -0.150561 0.175405
-0.108465 -0.130306 0.368453
-0.075508 -0.035606 0.258140
-0.105509 -0.112394 -0.284894
-0.046942 -0.009268 0.215647
-0.172364 -0.235595 0.004450
-0.155335 0.275306 0.322708
0.001707 0.447308 -0.264858
0.073738 0.128742 0.114805
0.077400 0.296650 -0.220349
-0.180197 0.351809 0.321812
-0.031353 0.121468 -0.328277
0.192063 -0.377087 -0.136220
-0.182518 -0.454380 0.111764
-0.099943 -0.177209 0.072970
0.077654 0.282627 0.089180
-0.176866 -0.011502 -0.303929
0.145198 -0.281146 -0.000467
0.082113 0.485915 -0.087048
0.023477 0.434700 0.208020
0.058891 0.353594 0.131159
0.132013 -0.445017 -0.096294
-0.095542 -0.174013 0.330783
-0.165195 -0.180983 -0.156741
0.051252 0.477361 0.096702
-0.168856 0.181361 -0.305867
0.124770 -0.376527 0.030285
-0.137544 0.329675 0.268747
-0.390149 0.193910 -0.221293
0.039189 0.425939 -0.267367
-0.165507 0.310498 0.318559
0.229579 0.288144 -0.329048
-0.043601 0.340487 -0.260860
-0.266234 -0.285993 0.106997
-0.261408 -0.383555 0.153814
0.102112 -0.261420 -0.249104
-0.178444 -0.103244 -0.002339
-0.088384 0.299377 0.226581
0.092569 -0.218109 0.096731
-0.052076 -0.355788 -0.036421
-0.296180 0.001182 -0.251605
0.069587 0.220740 0.118114
0.112598 0.327655 0.003480
-0.106878 0.403110 -0.202236
0.124542 0.017866 -0.001966
-0.015767 -0.051319 0.131948
0.081045 -0.351037 -0.225257
0.072795 0.384567 0.093842
0.029981 0.156214 0.227927
-0.163531 0.371838 0.165215
-0.094344 -0.201685 -0.206286
-0.228312 -0.117460 -0.166221
-0.160875 0.322550 0.304160
-0.088517 0.385835 -0.283936
-0.272325 0.028780 -0.253673
0.033062 0.476891 -0.027991
-0.123872 -0.194607 0.213858
-0.034505 0.478862 -0.160457
0.056623 0.391083 0.132522
-0.081649 0.423708 -0.270384
-0.077492 0.300746 -0.256285
-0.151433 -0.508165 0.213670
0.060505 -0.356076 -0.064685
-0.102759 -0.151493 0.348115
-0.191119 -0.344992 0.200175
0.087291 0.461927 -0.009961
-0.034558 -0.024729 0.130436
-0.161624 0.396458 0.354108
-0.124962 0.487925 0.128716
-0.254808 0.342995 -0.090865
-0.156642 -0.456268 -0.039137
-0.217751 0.416922 0.301949
-0.267797 0.140623 0.074396
-0.093214 0.415186 -0.119110
0.015602 0.496003 0.157816
0.111459 0.280705 -0.289316
0.092709 0.345330 0.049139
-0.055761 0.075538 0.150946
-0.209756 -0.433443 0.022497
-0.073108 -0.013899 0.399318
0.019820 0.254452 0.251974
-0.282575 0.153297 -0.018456
0.036064 -0.420788 0.022838
-0.022748 0.487978 -0.100771
0.096610 -0.232044 0.086606
-0.166801 -0.512055 0.218253
-0.136563 0.075533 0.089743
0.043628 0.264766 -0.261162
-0.023674 -0.021670 0.215798
-0.097026 0.080425 0.384138
-0.101454 0.145087 0.231225
-0.123085 -0.247054 -0.046950
-0.107785 0.198128 0.413630
-0.211841 -0.187506 0.068164
-0.235898 0.430157 -0.010050
0.094865 -0.378021 -0.222745
-0.040611 0.495596 -0.010758
0.149935 0.317841 -0.330936
-0.146452 -0.370150 0.223894
0.007408 0.128275 0.296466
-0.044498 0.120997 0.390992
-0.143223 0.469085 0.250791
0.090097 0.379425 -0.247521
-0.252119 -0.386199 0.235018
0.002465 0.331574 0.264616
-0.242962 0.386611 -0.013053
-0.019271 0.412238 0.305547
0.005179 0.050571 -0.318447
-0.108062 0.373576 0.409017
-0.174610 -0.369441 0.208615
0.101322 0.004580 -0.269260
-0.137312 -0.122624 0.027419
0.022518 -0.217315 -0.226941
0.079131 0.464887 -0.016357
0.074172 -0.467603 0.013648
0.065435 -0.319425 -0.037505
-0.159026 0.197686 -0.302953
-0.319159 -0.330290 -0.029420
-0.136365 -0.452021 -0.049015
-0.187089 0.373288 0.113795
-0.267625 -0.412921 0.229870
0.069481 0.476039 -0.089759
-0.245903 0.030658 -0.271618
-0.316768 0.117538 -0.150572
0.197033 -0.370658 -0.215412
0.130958 0.210623 -0.032573
-0.298386 0.054565 -0.129648
-0.200602 -0.086314 -0.022346
0.005390 -0.134139 0.301925
-0.336736 0.320425 -0.120200
-0.149069 -0.457621 -0.040452
-0.060576 -0.341725 -0.042453
-0.250545 0.003905 -0.265685
0.051106 -0.292106 -0.108461
-0.167345 0.103297 0.150115
-0.185560 -0.209723 0.042542
-0.002704 -0.335556 0.105203
-0.052807 0.046463 0.149447
-0.085578 0.047286 0.178118
-0.046951 -0.176251 0.289743
-0.188300 0.437887 0.026349
0.194242 -0.267326 -0.151969
0.015809 -0.361490 0.056330
0.023039 0.161788 0.253598
0.112171 0.239411 0.011160
0.113333 0.102782 0.018846
-0.131540 -0.179721 -0.156895
-0.072301 -0.112430 -0.291184
-0.191844 -0.412463 -0.039362
0.065323 0.349676 -0.211032
0.172645 -0.000760 -0.118722
-0.330953 -0.018386 -0.232236
-0.256117 -0.435530 0.167018
0.200389 0.304751 -0.220787
-0.098740 0.367749 -0.213739
-0.371360 0.081903 -0.226756
-0.118095 -0.129903 0.374891
-0.306439 0.153759 -0.104045
-0.010079 0.498932 0.061203
-0.251264 -0.385278 0.242398
-0.218764 -0.436150 0.101704
-0.002001 0.299104 0.278056
-0.141585 0.404958 0.368090
-0.016591 -0.232765 0.138959
-0.099264 0.134681 0.410284
-0.048201 -0.096644 0.229202
-0.340507 -0.000264 -0.236211
-0.204622 -0.303676 0.164208
0.164376 0.350464 -0.107646
-0.096125 0.245067 0.436301
-0.148489 0.355353 0.206519
-0.282735 0.216129 -0.204915
-0.117135 0.186165 -0.314647
-0.157033 0.197281 0.384199
-0.348161 0.041729 -0.236846
0.008939 -0.023157 0.277944
0.182659 0.347598 -0.152415
0.196849 0.229916 -0.304771
0.166801 -0.055118 -0.097968
-0.070017 0.360812 -0.297176
-0.078514 -0.140347 0.144760
-0.291332 -0.294158 0.067568
-0.079760 0.032895 0.232217
0.105026 0.348435 -0.258881
-0.155055 0.366808 0.205298
0.083161 0.022419 0.098026
-0.105286 -0.009679 0.388597
0.211779 0.380945 -0.249909
-0.124246 0.049630 0.359799
0.114943 -0.486595 -0.021073
0.166757 -0.014487 -0.102010
-0.164575 -0.276839 0.161311
0.145154 0.248725 -0.316231
0.167330 -0.232785 -0.059427
-0.292330 -0.266660 0.032078
-0.352678 -0.407670 0.019705
0.030077 0.469310 -0.078007
0.167900 0.358957 -0.119515
-0.053731 0.075675 0.393079
0.031845 0.210789 0.207206
-0.177784 0.464333 0.232426
-0.207038 0.195253 0.182517
-0.192418 0.359395 -0.133060
0.137174 -0.433074 -0.161132
-0.265880 0.198613 -0.229380
-0.292299 0.165754 -0.047498
0.132055 0.174005 -0.033322
0.132770 0.208001 -0.235023
-0.182868 0.399618 0.284753
-0.109718 -0.223152 -0.081681
-0.000972 0.499128 0.100710
-0.265223 0.164664 -0.245013
0.033553 0.468655 -0.072565
-0.113533 -0.073723 0.351820
0.150181 -0.418492 -0.030434
0.178960 -0.227587 -0.205872
-0.021671 0.394199 0.312700
0.146223 0.254919 -0.322148
0.159310 -0.432978 -0.109395
0.167315 0.062336 -0.222155
0.132786 0.395757 -0.055989
-0.072517 0.509111 0.192591
-0.292192 0.108166 -0.050039
-0.221902 -0.110281 -0.124553
0.081388 -0.343463 -0.119927
-0.235116 0.200067 0.145242
-0.107811 -0.181837 0.088322
-0.282356 0.190257 -0.018230
-0.009935 -0.032970 0.205224
-0.126617 -0.174046 -0.028808
0.113335 -0.455201 -0.107869
0.088448 -0.090283 0.097072
-0.278090 0.095345 -0.251977
0.033099 0.449293 0.177994
0.071773 0.450722 -0.234862
0.068529 0.452221 -0.075006
0.229512 0.265764 -0.292479
-0.114290 -0.202223 0.218897
-0.032797 -0.123592 -0.283717
-0.101282 0.293662 -0.255925
-0.168078 0.155187 0.357115
0.131087 0.154338 -0.247956
-0.191599 0.444603 0.044614
0.089015 0.277212 -0.225579
-0.169130 -0.307699 -0.051405
-0.260592 -0.134633 -0.217641
0.029680 0.386074 0.197519
0.098911 0.364184 0.032140
-0.266791 -0.072249 -0.183129
-0.347102 0.106895 -0.199452
-0.282990 0.077100 -0.249646
-0.307535 -0.347729 0.105809
-0.050146 0.318566 -0.245505
0.030553 0.402657 -0.271671
-0.230192 -0.281356 -0.061197
-0.195348 -0.091356 -0.254550
-0.089645 -0.137609 0.317129
-0.387662 0.131649 -0.251094
-0.095417 -0.159042 0.098795
-0.137360 0.475267 0.244633
-0.202589 0.116887 0.165907
-0.080194 -0.397223 0.088944
-0.101201 -0.155803 0.084220
-0.203232 0.452664 0.088351
0.131137 -0.321039 -0.266602
0.168784 0.431619 -0.151335
-0.142490 -0.458883 0.298806
-0.106936 0.396707 -0.210619
0.014012 0.397789 0.232089
-0.148314 -0.439978 -0.056098
-0.120591 -0.119948 0.390435
-0.123740 0.419397 -0.094477
-0.258535 -0.063842 -0.232500
0.200706 0.328583 -0.193404
-0.229674 0.310824 -0.162906
0.001811 -0.068775 0.217191
0.116922 0.226164 -0.000461
-0.051523 -0.091142 0.235307
0.168782 -0.407256 -0.079229
0.008026 0.177558 0.283608
-0.330860 -0.309089 0.018610
-0.047164 0.277402 -0.277837
-0.256923 0.186283 -0.243218
-0.088217 0.260445 0.426777
0.193711 0.245613 -0.185312
-0.109410 -0.140058 0.063408
-0.079806 0.130275 0.263581
-0.090427 0.031740 0.193964
-0.087157 0.057642 0.123877
-0.198532 -0.522089 0.191149
0.059729 0.057296 -0.298894
-0.131166 -0.418455 -0.066591
-0.164482 -0.402864 0.303806
-0.113921 -0.195484 -0.144346
-0.207817 -0.038994 -0.277257
0.032550 0.173611 -0.303464
-0.004457 0.494855 -0.010854
0.011231 -0.032135 0.175504
0.086409 -0.140829 0.107845
-0.329193 -0.418707 -0.036300
0.003136 0.310948 0.262826
0.083175 -0.039020 0.104416
0.092881 -0.355688 0.072906
-0.073818 0.166828 0.290159
0.128411 -0.464125 -0.067882
0.056502 0.286881 0.143927
-0.044960 -0.103084 0.292453
-0.035698 -0.366305 0.085347
0.114613 0.307171 -0.000289
-0.071208 0.105315 0.278955
0.061368 0.471959 0.109036
-0.229677 -0.112884 -0.153653
0.114509 0.511165 -0.112610
-0.036351 0.385208 0.348185
-0.308069 -0.343217 0.101530
0.020937 0.005872 0.247437
-0.142180 -0.043317 -0.307515
-0.132854 0.096349 0.366362
-0.102494 0.472664 -0.004528
-0.270300 -0.429401 0.212819
-0.025008 0.450059 -0.267282
0.192652 -0.041939 -0.169591
-0.121963 -0.006568 -0.321240
-0.248536 -0.383478 0.277439
0.118723 -0.472547 -0.051817
-0.311098 0.331667 -0.139473
-0.053329 -0.087247 0.256986
0.110660 0.470092 -0.035096
-0.008641 -0.150119 -0.267525
0.051382 0.206797 0.161506
-0.065414 -0.074789 0.330758
0.181594 0.135765 -0.156121
-0.118493 0.011264 0.085483
-0.194581 -0.476718 0.287183
0.109572 0.117462 0.027155
-0.081412 0.146146 0.415769
-0.211570 0.357184 0.083867
-0.159361 -0.298366 0.162553
-0.200099 0.294071 -0.219749
-0.083209 0.131354 0.258463
-0.205414 0.307908 0.117793
-0.062446 -0.119420 0.197823
0.088072 0.385314 0.056463
-0.193393 -0.100755 -0.016335
-0.082881 -0.001889 0.190314
-0.302529 -0.321470 -0.035799
-0.399151 0.257216 -0.212243
-0.151579 -0.153280 -0.016880
-0.137826 -0.173696 -0.167855
0.074177 -0.214710 0.113807
-0.231307 -0.372688 0.249619
-0.026382 0.192462 0.368681
-0.282441 0.017953 -0.245344
0.140953 0.386551 -0.277237
0.135277 -0.011448 -0.241500
0.196307 0.299230 -0.341010
0.071644 -0.039818 0.132587
-0.097511 0.190465 -0.315607
-0.011639 -0.184578 0.250313
0.155415 0.254768 -0.073810
-0.133313 -0.193067 0.206568
-0.125058 -0.419825 0.280829
-0.158661 0.008206 0.302948
0.166700 0.418365 -0.147607
-0.347631 0.293363 -0.166391
0.058416 0.245454 0.142450
-0.067949 0.468112 -0.120990
-0.325801 -0.372244 0.000722
-0.176071 -0.420942 -0.052897
-0.157135 0.103316 0.145615
0.178704 -0.296818 -0.083152
-0.119115 -0.475676 0.273972
-0.299894 -0.091859 -0.248601
0.040374 -0.358818 0.027586
-0.046562 0.013660 0.393971
-0.192959 -0.503260 0.255820
0.071031 0.469189 -0.013808
0.152781 0.464419 -0.192785
0.024192 -0.102987 0.253173
-0.320238 0.037788 -0.220426
-0.088701 0.277270 -0.273638
-0.141826 0.020189 0.349667
-0.293127 -0.113194 -0.224280
-0.070409 -0.046492 0.405455
0.043061 -0.429810 -0.036313
-0.185677 -0.191782 -0.132704
-0.335979 -0.346314 0.031563
0.185376 -0.128730 -0.141909
0.158600 0.301945 -0.319932
0.195246 0.351172 -0.210873
-0.256272 0.450289 0.013867
-0.200324 -0.472196 0.146905
0.112090 0.232777 -0.237508
-0.033691 -0.192868 0.246868
-0.349366 0.338793 -0.145828
-0.200753 0.411890 0.290653
0.186600 -0.208967 -0.137171
-0.155484 -0.090429 0.020810
-0.346723 -0.407697 0.047984
-0.202745 0.384542 0.322129
0.050907 0.275305 -0.250385
0.117796 -0.386146 -0.234405
0.128806 -0.035474 -0.241843
-0.161404 0.166214 -0.312229
-0.259007 -0.132032 -0.200948
-0.140695 0.316492 0.282347
-0.185253 0.304871 0.347985
-0.172256 -0.411907 0.294976
-0.178721 -0.352756 0.226255
-0.266623 0.023579 -0.042430
0.027120 -0.121094 0.247989
0.152215 0.206858 -0.242711
-0.264152 0.048743 -0.021504
0.059866 0.469069 -0.047991
-0.118375 0.033749 0.088466
0.063477 -0.152333 -0.254697
0.051405 -0.293184 -0.096324
0.044461 0.063335 0.194419
0.068108 -0.057474 0.140481
-0.075375 -0.043642 0.316720
-0.117426 0.313880 -0.232861
-0.009939 0.027533 0.319727
-0.195107 0.369249 0.104093
0.185682 -0.382570 -0.092319
0.106776 0.363981 0.013209
-0.084962 0.284489 0.435268
-0.310038 0.045962 -0.181546
0.084311 0.391492 0.065584
-0.119129 0.001653 0.278003
0.073085 -0.195465 0.134217
0.090941 0.257214 -0.237908
-0.180031 -0.243077 -0.053603
0.178643 0.299713 -0.135533
-0.114770 0.288372 0.201449
-0.100713 -0.125216 0.095232
0.093675 0.244689 -0.243721
0.083504 0.331991 0.072798
-0.119163 -0.165812 -0.227890
0.019819 0.475569 0.209395
-0.353093 0.239502 -0.205889
-0.086507 -0.019153 0.103111
-0.167740 -0.222563 0.029705
-0.144191 -0.167859 0.147029
-0.189054 0.085584 0.089487
0.023840 -0.134363 -0.268418
-0.190694 0.211449 0.367186
0.173979 -0.002204 -0.124007
0.010298 -0.083346 0.285236
0.149278 -0.022051 -0.227111
-0.130441 0.320898 0.198246
-0.018581 0.300014 0.315948
-0.126826 0.388141 -0.130958
0.084914 0.310247 -0.204047
-0.150394 -0.300173 0.164958
-0.187665 0.478316 0.192755
0.166237 0.252847 -0.100649
0.082243 0.337629 -0.213840
-0.186369 0.480540 0.146674
-0.085782 0.047504 -0.332473
-0.094721 0.354418 -0.262027
0.001233 0.074344 0.289142
0.047234 -0.046560 -0.292681
0.189956 0.030443 -0.163069
0.085590 -0.230640 -0.240388
-0.005369 -0.084837 -0.296697
0.056180 0.223971 -0.275152
-0.012417 0.417305 0.291940
-0.267478 0.177800 0.012090
-0.144192 -0.199810 -0.094421
-0.117162 -0.435649 0.037473
-0.205813 0.395163 0.061249
-0.193280 -0.122456 -0.219819
-0.135771 -0.165372 0.104127
-0.077232 -0.254232 0.166051
-0.169367 0.429097 0.281372
-0.209187 0.335067 -0.150552
-0.222514 0.186157 0.052570
-0.148640 -0.020237 -0.313383
-0.036201 0.336636 -0.255231
-0.320110 -0.375994 0.109355
-0.258000 -0.175144 -0.194595
0.106839 0.111131 0.035308
0.092449 0.141570 -0.275708
-0.168995 0.321731 0.385824
-0.162453 0.469114 0.221110
-0.215598 0.291175 -0.208268
-0.050601 -0.067001 0.112677
0.011642 -0.074271 -0.296600
0.016896 0.382557 0.226730
0.176706 0.367190 -0.140002
-0.213759 0.369808 0.067941
0.200094 0.389677 -0.227012
-0.099504 -0.155832 0.338687
-0.108296 -0.195237 -0.196396
-0.186768 -0.024170 0.021191
-0.126472 -0.432004 0.290865
-0.118180 -0.011796 0.338710
-0.041713 -0.019053 -0.321605
-0.190284 0.197029 -0.290672
0.067655 0.051423 -0.294423
0.088756 0.481700 -0.194970
-0.147346 0.251395 0.204298
-0.056448 -0.211552 -0.217221
-0.391381 0.139381 -0.247661
-0.206822 0.254111 0.159483
0.016316 0.026300 -0.313560
0.066976 0.084270 0.139739
-0.339108 0.100375 -0.245845
0.106395 0.452615 -0.040098
0.094661 -0.016678 0.074912
-0.102929 -0.147914 -0.258438
-0.205626 0.356633 0.335332
0.193400 -0.373907 -0.131255
-0.065739 -0.072426 0.115937
-0.253732 -0.440620 0.263577
0.182081 0.222090 -0.160798
-0.239064 -0.177557 0.087391
-0.238285 -0.374337 0.249502
-0.056178 -0.209979 0.234122
-0.021643 0.290965 0.322907
-0.095702 -0.119471 0.106660
0.073385 0.284974 0.102756
-0.196781 -0.497423 0.171449
-0.266100 -0.374514 0.136300
-0.007297 0.497671 0.037630
-0.028678 -0.378348 0.026550
0.108861 -0.324114 -0.254144
-0.280965 -0.008778 -0.243457
0.107151 0.210830 0.024720
-0.009663 -0.356196 0.084773
0.143909 0.329697 -0.319055
-0.215041 -0.373418 -0.046630
-0.283883 0.277032 -0.071445
0.066713 -0.446664 -0.078511
-0.106580 0.464131 0.324092
-0.212820 -0.050524 -0.269910
0.060926 0.476924 0.009588
-0.126356 0.241907 0.431238
0.149594 -0.310557 -0.011068
-0.322342 0.135803 -0.161938
-0.266857 0.016210 -0.051525
-0.285838 0.052164 -0.246876
-0.093150 0.247904 0.274591
0.188115 0.034809 -0.158141
0.019186 0.215628 -0.295280
-0.034349 -0.255337 -0.141229
-0.298359 0.020926 -0.162948
-0.247691 0.456579 0.013350
0.143382 -0.263095 0.000800
0.001812 0.339351 0.265946
-0.107187 0.479248 0.040902
0.006156 0.461776 -0.237585
-0.126845 0.064914 0.359110
0.013472 0.228802 -0.292331
0.102639 0.455732 -0.219746
-0.014704 -0.009058 0.151535
-0.019260 -0.370686 0.058911
0.067639 -0.456499 0.063358
-0.180497 0.438843 0.043045
-0.143293 0.463487 0.038836
-0.274243 -0.243805 0.085821
0.073371 -0.463175 0.026173
0.047267 0.132634 0.181345
0.011585 0.353890 0.240047
-0.294005 0.082923 -0.077243
-0.169602 0.375991 0.285578
0.177040 0.229481 -0.126386
-0.186321 -0.190882 0.069319
-0.142958 0.214406 -0.299715
-0.267272 0.375922 -0.033124
0.164703 0.402024 -0.255856
0.105532 -0.152578 0.061617
-0.124428 0.081402 0.322833
-0.046491 -0.381331 0.048396
0.188407 0.204246 -0.240598
0.157743 0.230374 -0.292636
-0.098755 -0.203883 -0.196817
0.213783 0.240319 -0.247915
-0.155475 0.461462 0.082705
-0.107155 0.250185 0.435638
0.149832 -0.432802 -0.031822
-0.230212 0.389953 0.006923
-0.137327 0.190218 0.322229
-0.116694 -0.159711 0.205632
0.175407 0.096033 -0.215760
-0.036266 -0.058061 0.277923
0.138447 0.337653 -0.304161
-0.249357 -0.457028 0.257220
-0.157157 0.350443 0.276742
-0.099812 0.003301 0.266008
-0.297743 0.093567 -0.237107
-0.034925 -0.350854 -0.028960
-0.220603 0.229679 0.153025
-0.107415 0.261826 0.425477
-0.081206 0.060645 0.295945
0.016859 0.485570 0.029198
-0.208463 -0.235470 0.020348
-0.066983 0.051295 -0.332590
0.211475 -0.325993 -0.192244
-0.035039 -0.008964 0.385184
0.093869 0.162354 -0.271828
-0.140619 0.119239 0.334699
0.139851 0.039155 -0.243449
-0.084628 0.110933 0.204877
-0.256387 0.256761 -0.201195
0.190638 0.327321 -0.168453
-0.193630 -0.045491 0.000078
0.026544 -0.280328 -0.133256
0.076864 -0.360250 -0.207769
-0.137822 0.250221 -0.282625
-0.172076 0.374040 0.298518
0.169553 -0.190311 -0.092626
0.025201 0.425675 0.204690
-0.233227 -0.429644 0.056282
-0.197843 -0.133569 -0.133883
-0.301966 -0.412952 -0.046344
0.090404 0.407943 0.050235
0.117542 -0.342343 0.041390
0.028803 -0.061340 0.237363
0.138641 -0.459814 -0.036608
-0.168479 0.086647 0.069952
-0.048692 0.499542 0.076617
-0.104565 -0.382253 0.204894
-0.043570 -0.065763 0.314106
-0.261741 -0.090161 -0.240113
-0.365734 0.052576 -0.243506
-0.093706 0.246030 0.425341
-0.267185 -0.404897 0.216120
-0.212951 -0.400512 -0.032169
0.019104 -0.226696 0.128905
-0.013224 -0.057818 0.219046
0.042351 0.283858 0.175768
-0.239868 0.291280 0.048526
-0.029393 -0.045151 0.373731
-0.279015 0.176362 -0.008607
-0.304385 0.202553 -0.092822
0.190805 -0.098422 -0.160937
-0.125302 -0.173242 0.111990
-0.214581 0.265077 0.134710
-0.109616 0.414935 0.375456
-0.101865 -0.255975 -0.038867
-0.071062 -0.055486 -0.316421
0.194568 0.252859 -0.195721
-0.362111 0.096198 -0.213880
-0.038751 -0.246578 0.178690
-0.213850 -0.030297 -0.277490
0.102732 0.502693 -0.092732
-0.002114 -0.162954 0.284866
-0.224969 0.354604 -0.089392
0.035706 0.375873 0.184504
-0.206338 -0.436039 0.034513
-0.155255 -0.101823 0.018506
-0.105231 0.415944 -0.189733
0.084907 -0.463316 0.024646
-0.158784 0.094107 0.345994
0.127856 0.365012 -0.286872
0.139111 0.330575 -0.047079
0.076992 -0.204202 -0.233402
-0.201874 -0.438341 0.068058
-0.260563 0.155425 0.077452
-0.156856 0.462672 0.099273
0.108055 -0.335943 -0.253268
0.028462 0.446502 0.187728
-0.010646 0.048709 0.318009
-0.202469 -0.124001 -0.070361
-0.047681 0.171365 -0.320345
-0.148976 -0.011701 0.309690
-0.106702 0.243501 -0.291765
0.093727 0.050247 -0.278137
0.115986 0.236942 -0.249862
0.123208 -0.030100 0.007029
-0.227044 0.363112 0.034491
-0.294410 0.063190 -0.100202
0.065973 -0.266938 0.105945
0.125157 -0.034051 0.001780
-0.023834 -0.207985 0.234715
-0.092478 -0.427095 0.242468
-0.193152 -0.133562 -0.077722
-0.048143 0.479687 -0.145294
-0.182032 0.416769 0.304040
-0.234235 0.005419 -0.275402
-0.163888 -0.409330 0.292914
-0.181630 -0.313258 -0.052806
-0.200612 -0.325987 0.165831
0.207635 -0.368944 -0.184906
-0.171609 0.385572 0.147495
-0.125286 -0.032030 0.068514
-0.153570 -0.191574 -0.108075
-0.050063 0.495062 -0.005666
-0.039888 -0.292605 -0.063834
-0.117585 -0.111999 0.393821
-0.206494 0.312672 0.103129
-0.277956 0.158477 -0.238060
-0.108814 0.105664 0.398699
-0.052219 0.469078 0.312241
-0.286341 0.136576 -0.029797
0.022968 0.296800 -0.246041
-0.284433 -0.311293 -0.032072
0.138406 0.216789 -0.249813
-0.087209 0.179614 0.424889
-0.064179 0.337401 -0.254620
-0.102832 0.480635 0.039258
-0.067211 0.111372 0.168966
0.118766 -0.208460 0.034535
0.166746 0.374320 -0.117156
0.038040 0.463286 0.166876
0.205087 -0.309408 -0.174998
-0.021694 0.080147 0.342566
0.040043 0.413904 0.168234
0.071436 -0.299213 -0.072964
-0.098411 -0.408708 0.245225
0.146382 -0.028846 -0.227769
-0.216611 0.469212 0.062308
0.062749 0.073382 0.150198
0.077135 0.488377 -0.182092
-0.320091 0.018492 -0.219296
-0.385566 0.118817 -0.221810
-0.255819 -0.011510 -0.063148
-0.094120 0.478829 -0.007529
-0.344342 0.179877 -0.178147
-0.035576 -0.256486 -0.120707
-0.236018 -0.384345 0.280228
-0.049456 -0.263813 0.148010
-0.174242 0.282242 0.379591
0.127907 -0.185795 0.009089
-0.140083 -0.347988 -0.057856
-0.096614 -0.036103 -0.318133
0.035788 0.480917 0.143102
-0.023095 0.468835 -0.178211
0.167425 0.174841 -0.126142
0.212189 0.310525 -0.337108
-0.099458 0.259253 -0.283549
-0.008317 0.489446 0.224168
-0.244166 -0.126938 -0.214361
0.072810 0.469091 0.070261
-0.222488 0.434427 -0.001028
-0.154119 0.138552 -0.321089
0.029469 0.476834 -0.156385
0.115303 0.228090 -0.238698
0.180960 0.351721 -0.148686
-0.145955 0.404438 0.365599
0.166463 -0.185019 -0.086155
-0.016594 0.115909 -0.326798
-0.005048 0.109965 0.321833
-0.182291 -0.457695 0.006698
-0.334751 0.347430 -0.108827
-0.219669 -0.194319 0.060016
0.133127 -0.416691 -0.200585
-0.119340 -0.011242 -0.320500
-0.157010 0.470276 0.130022
0.125353 0.024446 -0.004699
-0.039288 0.094299 0.382061
0.033102 0.299120 0.198941
-0.042948 0.045257 -0.329450
0.075755 0.023858 0.115291
-0.083879 0.023132 0.100324
0.210950 0.297704 -0.337273
0.031343 -0.149887 0.241444
-0.318421 0.019456 -0.246717
-0.276851 0.228476 -0.018020
0.037090 0.250173 -0.273805
0.176503 -0.096879 -0.117719
-0.032071 -0.174489 0.318007
-0.140581 -0.221719 -0.106300
0.154212 0.017676 -0.231186
-0.072648 0.126421 0.173007
-0.208082 0.073970 -0.300587
-0.192829 -0.400142 0.284178
-0.143775 0.434721 -0.044677
0.030912 0.182295 0.231723
-0.116794 -0.117537 0.058885
0.116440 0.252592 -0.281855
-0.050329 0.273757 -0.280025
-0.328874 0.246932 -0.152053
-0.157904 0.150521 0.346192
-0.205000 0.200814 0.386396
-0.205395 0.089976 0.122628
-0.129517 -0.363034 0.197158
-0.189718 0.261320 0.358312
-0.003005 0.285489 0.298464
-0.232825 -0.390772 0.266350
-0.356188 0.340521 -0.135614
0.106747 -0.188676 -0.219399
0.012987 -0.330515 0.099505
0.076916 -0.030324 0.117229
0.051376 0.464728 -0.107810
0.110309 0.328686 0.008966
0.050856 -0.028986 0.180627
0.024917 0.110044 0.229619
-0.180247 -0.039497 0.017175
-0.103263 -0.433496 -0.053671
-0.110829 -0.427725 0.104195
-0.244060 -0.122357 -0.188480
-0.242006 0.317788 0.033573
0.035652 0.474042 0.171517
0.062212 -0.337522 -0.040379
0.051812 -0.206613 0.185378
0.176569 -0.226537 -0.088575
-0.258430 -0.416998 0.120047
-0.007542 -0.139350 0.332178
0.159979 -0.001203 -0.086385
-0.238548 0.112878 0.138004
0.017622 0.362748 0.227968
-0.083929 -0.435890 -0.028018
-0.191856 -0.408734 0.305283
-0.269933 0.240384 -0.002088
-0.114264 -0.179553 -0.018080
0.173815 0.208962 -0.249019
0.031786 -0.216697 0.186601
-0.289596 0.051178 -0.092890
-0.052624 -0.018061 0.170111
-0.131674 0.175036 0.395480
0.118610 0.273567 -0.014569
-0.102812 0.216481 0.431933
0.115989 -0.022456 0.023406
0.057756 0.038951 -0.297573
-0.294625 0.185198 -0.062809
-0.216671 -0.216370 0.036786
-0.075648 0.072503 0.275120
0.005292 -0.229456 0.150809
-0.295286 0.027353 -0.149222
-0.165507 -0.082588 0.013541
0.183098 0.057583 -0.149275
-0.202639 -0.032259 -0.283186
0.120956 0.437280 -0.029741
-0.158062 0.094329 0.114680
-0.258858 0.318443 -0.044576
-0.163945 0.395214 0.252756
-0.166697 -0.468776 0.004494
-0.032275 -0.173242 0.253212
-0.065939 -0.082287 0.128219
-0.178518 0.438091 0.275650
-0.237815 0.377255 -0.065545
-0.169390 -0.463107 0.027038
0.053990 0.248828 0.153335
-0.248532 0.192293 0.117660
0.047170 0.266645 -0.257823
-0.080054 0.464048 0.323322
-0.059667 -0.078599 0.129293
-0.186744 0.369597 -0.123382
-0.250073 -0.414191 0.093858
-0.036550 0.129368 0.370806
0.165008 0.116322 -0.111586
-0.116726 -0.157065 -0.240097
0.042551 0.003895 0.200128
-0.036954 0.333677 0.351421
-0.095938 0.190529 0.266569
-0.103377 -0.023049 0.292503
0.182012 0.345947 -0.342241
-0.231310 0.118430 0.049437
0.091066 -0.297918 -0.102143
-0.006429 0.226503 -0.298105
0.125195 -0.419243 0.034895
0.153724 0.213647 -0.089774
-0.340757 0.156077 -0.215714
-0.273716 0.352341 -0.054083
-0.230028 -0.456851 0.150563
0.132462 -0.202397 -0.214664
-0.167175 -0.116725 0.001220
-0.158584 0.116765 0.357828
0.192356 -0.214900 -0.168059
0.111506 -0.306744 0.057830
-0.341183 -0.016980 -0.266923
0.016003 0.313550 0.234480
-0.006585 0.446098 0.275426
0.065056 -0.113435 0.153260
-0.263998 -0.363194 0.125249
-0.204698 -0.415206 -0.021593
-0.298309 -0.089376 -0.225780
0.192181 -0.123332 -0.159671
-0.325882 0.151577 -0.170732
-0.099583 0.218186 0.420200
0.068707 0.308416 0.111155
-0.152346 0.182264 0.227806
0.218218 0.347268 -0.270844
0.092022 0.453249 0.018072
-0.195158 -0.277843 0.147812
-0.167742 -0.354686 0.234933
-0.201878 -0.177617 -0.143954
-0.153854 -0.458438 0.047707
0.170304 -0.063606 -0.105202
-0.220748 -0.393230 0.270771
0.101702 -0.227104 -0.242636
-0.280885 0.209026 -0.022328
-0.247017 0.029374 -0.007714
0.106042 -0.272455 0.072656
0.101147 -0.067567 0.063053
-0.299846 0.100101 -0.093897
-0.293557 -0.098985 -0.247048
0.131825 -0.171892 -0.002965
-0.097000 -0.445893 0.001401
-0.155955 0.463627 0.105760
0.074556 0.439728 0.085297
-0.172003 0.426085 -0.033986
0.129489 0.187880 -0.028136
-0.044828 0.495996 0.006681
0.004510 0.474583 0.244545
0.186382 0.236023 -0.150462
-0.192545 -0.167337 -0.177772
0.100066 0.186237 0.044137
0.096788 -0.326794 -0.111912
0.200627 0.295922 -0.338883
-0.104075 0.399790 -0.136262
-0.158578 0.247680 0.398372
0.093400 -0.396055 -0.198907
0.019817 0.118155 0.252251
-0.130091 0.148968 0.386380
0.181178 0.262201 -0.326598
-0.203675 0.393637 -0.050757
-0.319873 0.114584 -0.160743
0.191240 -0.406559 -0.138286
-0.002662 0.266329 0.302641
-0.269398 -0.342014 0.111658
-0.147943 -0.283746 0.160769
0.033966 0.478199 -0.004935
-0.273158 -0.294960 -0.017680
0.100480 0.328626 0.031824
-0.104249 -0.175000 0.026662
0.087978 0.167453 0.076544
-0.246660 -0.291811 -0.063663
-0.094506 -0.204973 -0.200797
-0.012217 -0.112732 0.341521
0.048168 -0.377769 -0.048548
-0.292063 -0.371981 -0.041814
-0.111900 -0.440368 0.027400
0.159173 0.114407 -0.230767
0.048602 -0.465376 0.040970
-0.295015 0.154500 -0.227706
-0.078003 0.043936 0.166565
-0.040590 0.502983 0.107494
-0.251280 0.186687 -0.248238
-0.216011 0.078906 0.033342
-0.233744 0.226283 0.109401
-0.097219 -0.067682 0.079880
-0.384649 0.071687 -0.251928
-0.130071 0.487756 0.158881
-0.255780 0.318694 -0.113823
-0.254872 0.004290 -0.038202
-0.123360 0.198340 0.250522
0.074171 0.170123 0.110194
0.044042 -0.469290 0.000874
0.079127 0.019499 0.109785
-0.096041 0.160783 0.405714
-0.029197 -0.336316 -0.040740
-0.299501 0.166712 -0.076292
-0.102066 -0.111727 0.401554
-0.083098 0.049106 0.242454
-0.373422 0.219915 -0.181172
-0.325784 0.147249 -0.173390
-0.043873 -0.176309 0.329223
-0.113265 0.419411 0.369114
-0.089418 0.109921 0.221319
-0.086033 0.067978 0.219901
-0.017086 0.386226 0.304656
0.048211 -0.303785 -0.066988
-0.151331 0.466704 0.217420
0.027681 0.083782 -0.313967
0.012383 -0.078799 -0.294612
-0.009690 -0.309409 -0.063624
0.029331 -0.279015 -0.142419
-0.149642 -0.412384 0.304483
-0.338552 -0.432615 0.031518
-0.210748 -0.115264 -0.086390
0.197323 -0.352669 -0.145919
0.208227 0.222073 -0.234323
0.040473 0.300806 -0.237576
-0.204401 -0.167580 0.093690
-0.138733 0.473552 0.249729
-0.229892 0.045104 -0.282401
-0.288131 -0.388185 0.104910
-0.298430 0.281793 -0.102430
-0.198638 0.373544 0.098428
0.062101 0.088296 -0.299464
-0.162988 -0.155069 -0.078559
-0.296968 0.126984 -0.063461
-0.191281 0.468976 0.082141
-0.247160 -0.147324 -0.183103
0.080373 -0.359465 0.079129
-0.049932 0.487521 -0.077245
-0.366004 0.121874 -0.248340
0.171683 0.428245 -0.222049
0.096414 0.385111 0.036272
-0.245493 0.453961 0.029580
-0.329855 0.361237 -0.120993
0.002026 0.466589 -0.183801
-0.314942 -0.431430 0.021449
-0.266169 -0.081402 -0.240428
-0.069097 -0.422371 -0.012360
-0.107691 -0.158144 -0.246788
-0.089064 0.269663 0.266648
-0.008684 0.254904 0.317147
0.146288 0.356064 -0.064377
-0.127911 -0.067737 -0.303162
0.142630 0.490355 -0.164625
0.006416 0.173669 0.288651
0.114185 -0.044178 0.028842
-0.186648 -0.231195 0.188864
0.174767 -0.287223 -0.074993
0.065363 0.037894 0.140751
-0.229978 -0.114701 -0.217614
0.034720 -0.107279 0.230844
-0.126146 0.458146 -0.002292
-0.263614 0.122846 0.060782
-0.058402 -0.383369 -0.015156
-0.017143 -0.098623 0.352333
-0.087948 -0.012315 0.396385
-0.218484 0.235585 0.089458
-0.139458 -0.218155 -0.113339
0.092340 0.350372 0.048775
-0.131041 0.017524 0.302033
-0.078070 -0.050973 -0.316909
-0.265959 0.038176 -0.028830
-0.265520 -0.354465 -0.046318
0.149597 0.180280 -0.077289
-0.251257 -0.421117 0.284392
0.072526 -0.350125 -0.141656
0.172023 0.477599 -0.155852
0.119478 0.076533 0.004860
-0.051456 -0.007891 0.214040
-0.358947 0.090804 -0.255445
0.101998 0.095626 0.048537
-0.206210 0.329694 -0.163449
-0.122248 -0.142191 0.032919
-0.099186 0.008264 0.268640
0.058763 -0.463368 0.048911
-0.142349 -0.266937 0.160242
-0.082044 0.027516 0.304055
0.029255 0.479061 -0.020075
0.198351 0.372157 -0.285250
-0.093001 -0.411396 0.162260
-0.043028 -0.043139 0.302479
-0.149276 -0.170471 -0.109358
-0.090324 0.127341 0.291376
0.098474 0.402887 -0.249592
-0.226081 -0.361146 0.217233
-0.338307 0.017482 -0.234850
0.083841 -0.294185 0.088966
-0.292610 -0.035201 -0.252044
0.131772 0.434502 -0.059242
-0.132141 0.363444 -0.172863
0.072537 0.280681 0.105486
0.103212 0.456982 -0.043748
-0.205248 -0.127068 -0.132023
-0.387322 0.126727 -0.221746
-0.081454 -0.061866 -0.313971
-0.215612 0.333684 0.084295
-0.253548 -0.292999 -0.065693
0.116059 0.334635 -0.010655
-0.227288 0.332490 -0.126572
0.157326 -0.438562 -0.051656
-0.133923 0.012625 0.292726
-0.132473 0.450762 -0.016900
-0.042242 -0.106343 0.400304
0.209497 0.219702 -0.284914
0.103271 0.489655 -0.072254
0.096897 0.061526 -0.276668
-0.180479 0.307332 0.344237
-0.002782 0.477876 -0.139609
0.014420 0.497008 0.113956
-0.167257 0.399508 0.156280
0.022233 0.157367 0.254953
-0.098943 -0.142815 0.375522
0.153267 -0.153137 -0.058118
-0.060230 -0.239764 -0.105202
-0.041017 0.189339 0.380618
-0.232082 -0.266645 -0.012831
-0.030898 0.397478 0.334928
-0.368364 0.101077 -0.256417
0.050882 -0.332051 -0.030270
-0.186548 0.181793 -0.298643
-0.159834 0.358840 0.273478
-0.164577 0.070151 -0.321967
0.148703 0.071917 -0.239216
0.001883 0.496339 0.018074
-0.237230 0.237840 -0.233584
0.108845 -0.384554 0.067325
-0.238714 0.098364 0.056858
0.016858 0.251550 -0.281158
-0.114102 0.374753 -0.164179
-0.238860 -0.270337 0.154236
0.177325 0.325710 -0.139089
-0.154600 0.316525 0.402798
0.161724 -0.018801 -0.088913
-0.080503 0.012794 0.273720
-0.088223 -0.297643 0.146862
-0.080592 0.108105 0.193034
-0.210358 -0.124453 -0.207048
-0.052739 0.462148 -0.217980
-0.035064 -0.009012 -0.321646
-0.093252 0.212830 0.300553
0.020397 0.303210 -0.242137
-0.301744 -0.426723 -0.007579
-0.084332 -0.269082 -0.051992
0.174430 -0.342783 -0.071288
0.099839 0.333539 0.032588
-0.053572 -0.228891 -0.195036
-0.108635 0.102435 0.122140
-0.258523 0.160613 0.080496
-0.351320 0.214081 -0.168096
-0.357892 0.050315 -0.250745
0.098520 0.488205 -0.074285
0.069703 -0.294282 -0.154532
-0.061373 -0.402511 0.016762
-0.074204 -0.252026 0.160540
-0.274279 -0.246715 0.092031
-0.188414 -0.334550 0.171197
0.128190 0.230647 -0.028149
0.151827 0.359650 -0.079001
-0.257381 0.132404 -0.260924
-0.055410 0.434619 0.367195
-0.242754 -0.341699 -0.049136
-0.180884 0.322855 0.366926
-0.114467 -0.071161 0.067236
-0.185886 0.329340 0.363171
0.088476 -0.311203 -0.152268
-0.037113 -0.266606 0.139659
-0.098365 -0.022500 0.319603
0.203066 -0.355399 -0.241391
0.125765 -0.242454 -0.250648
-0.326222 0.039281 -0.219231
-0.212350 -0.125276 -0.144083
-0.016730 0.478500 0.280655
-0.227080 0.219886 0.085235
0.166942 0.081496 -0.223905
0.159226 0.194519 -0.107969
0.092770 0.011908 -0.275881
-0.170729 -0.185036 0.161700
-0.011349 0.320722 0.297417
0.061267 -0.396651 -0.094863
0.152866 0.229150 -0.292601
-0.182845 0.390195 -0.093754
-0.193135 0.091485 0.131344
0.152365 -0.308039 -0.270585
-0.286660 0.012445 -0.133354
-0.255641 0.297583 -0.151281
0.028193 0.484506 0.096824
0.202049 0.259287 -0.220025
0.134154 0.426044 -0.235991
0.008339 0.216930 0.280907
-0.005460 0.459997 -0.232470
0.168512 0.073567 -0.113313
0.161715 -0.384987 -0.033897
-0.113186 -0.457814 -0.004180
-0.001891 0.108834 -0.323681
0.064550 0.003412 0.145953
-0.181584 0.434039 0.018756
-0.328511 0.238656 -0.195356
0.037733 -0.152806 0.226951
-0.139677 -0.007369 0.293852
0.025413 -0.179477 0.247066
0.149697 0.091691 -0.238729
-0.190180 -0.510311 0.239955
0.126897 0.029484 -0.009927
0.192652 -0.408247 -0.155974
0.107283 0.268863 0.020187
-0.083333 0.116987 0.396453
-0.174374 -0.145518 -0.088574
-0.062061 0.502502 0.107079
-0.314864 -0.392995 -0.039036
-0.109271 -0.393603 -0.064661
-0.087965 0.084847 0.254140
-0.291792 -0.286844 0.001921
0.159453 -0.435624 -0.056946
-0.245359 0.118465 -0.272010
-0.045335 -0.048294 0.118504
-0.219639 0.161024 0.180989
-0.252493 -0.470371 0.219363
-0.017465 0.137261 -0.323927
-0.316194 0.192156 -0.209125
-0.022127 -0.262980 -0.088177
0.007064 -0.148865 0.295453
0.085049 0.330052 -0.229504
-0.115495 0.211624 0.307575
-0.366082 0.066918 -0.258794
-0.006487 0.270061 0.314331
-0.151684 -0.168616 -0.156023
-0.207697 0.337684 0.093824
-0.030571 0.496507 0.177898
-0.241566 -0.489089 0.199101
-0.174855 0.331840 0.328738
-0.143445 0.474428 0.145495
0.049105 -0.160886 0.198705
0.032776 -0.032957 -0.301447
-0.133906 -0.374339 -0.065228
-0.328023 0.101743 -0.187758
-0.169970 -0.214219 0.183658
-0.121207 -0.371127 0.231815
-0.285194 0.149443 -0.025717
-0.004644 0.418990 0.273275
-0.233264 0.144784 -0.277374
0.062537 0.481966 0.067384
-0.165377 0.124883 0.350990
-0.011829 0.492721 -0.056181
-0.114980 0.489207 0.101974
-0.015403 -0.192723 -0.244486
-0.049467 0.288084 0.384982
-0.267306 0.004542 -0.072291
0.123572 0.345288 -0.026284
-0.269207 -0.067980 -0.196205
-0.156521 -0.355937 0.220169
-0.169523 0.298477 -0.234428
-0.113303 -0.208473 0.010870
-0.208101 0.280091 0.136336
-0.189649 0.481640 0.143287
0.148977 0.272870 -0.328525
-0.092290 -0.208388 -0.084555
-0.146563 0.278192 0.311479
0.018583 -0.352053 0.074099
-0.323567 -0.051668 -0.256955
-0.328290 0.199739 -0.159108
0.181034 0.098114 -0.209000
-0.141256 -0.218053 0.029024
0.197212 -0.360723 -0.234200
-0.055605 0.375421 -0.301555
-0.035655 0.363776 0.347463
-0.130048 0.093835 0.102238
-0.074164 0.026612 0.294820
0.235393 0.306847 -0.310545
-0.073513 0.438266 -0.261543
-0.309053 -0.114324 -0.236138
-0.236191 -0.125878 -0.206400
-0.005740 -0.371289 0.022498
-0.329786 0.253892 -0.183493
-0.045261 -0.263021 -0.078548
-0.045318 0.474046 -0.179320
0.029773 -0.191334 0.236592
-0.173126 -0.005432 -0.307042
-0.146145 0.240211 0.406340
-0.025575 0.175971 0.368170
-0.272224 0.142419 0.091989
-0.187418 0.436874 0.042538
-0.151070 0.145395 0.337991
0.113090 -0.129492 0.039215
-0.283291 0.067361 -0.044878
-0.135023 -0.016100 -0.317347
-0.338337 -0.046108 -0.249912
0.100844 0.500986 -0.151272
-0.065979 0.409768 0.388665
-0.168932 0.458539 0.071505
-0.173648 0.154525 0.359309
-0.230381 0.360518 0.024531
0.079962 0.330037 0.082308
-0.090194 0.011946 0.187664
0.046715 0.369323 0.156737
0.088323 0.308033 -0.208195
0.079128 0.212023 -0.267247
0.132954 0.507135 -0.136505
0.053965 0.257757 -0.259703
0.060895 0.308027 -0.219731
-0.057947 0.264508 0.404550
0.157608 -0.212956 -0.206809
-0.110611 -0.198507 -0.156034
0.187028 0.361534 -0.166096
0.097511 -0.458569 -0.095371
-0.311069 -0.324689 0.081799
0.081805 0.241016 0.083019
-0.022415 0.366593 0.319747
-0.230174 0.286985 0.062928
-0.040224 0.461419 0.327730
-0.173501 -0.155777 0.130483
-0.089468 0.442139 -0.111644
-0.264371 0.293336 -0.019650
0.011453 -0.046461 0.194170
-0.000275 -0.233946 0.171375
-0.004594 0.147513 0.319760
-0.172205 -0.164102 0.135610
0.089044 0.225443 0.070185
0.147350 0.498744 -0.102615
-0.082379 0.280292 -0.272266
-0.237197 -0.396201 -0.034124
-0.210022 0.135192 -0.296699
-0.142281 -0.380259 0.245857
-0.301258 0.011307 -0.179088
0.125548 0.382424 -0.034845
-0.362967 0.143223 -0.235555
0.001770 0.475788 0.251758
0.047199 -0.356010 0.004735
0.050046 0.018119 0.180918
-0.114256 0.150723 0.396158
0.054763 0.083661 0.167085
-0.114733 -0.426991 0.092393
-0.143035 0.074681 0.343030
0.153430 -0.270027 -0.025746
-0.055995 -0.391306 0.035379
-0.015436 0.336853 -0.245639
-0.008355 0.495733 0.010333
-0.297128 0.403129 -0.061662
0.031830 -0.432357 0.039512
0.040898 0.045306 -0.305996
0.049023 -0.415797 -0.069159
-0.185067 0.375185 -0.116651
-0.006729 0.343650 0.285157
0.016590 0.158982 -0.311624
0.008783 -0.213839 0.215414
-0.332907 0.216656 -0.152691
-0.160014 0.252261 0.397954
-0.310907 -0.426108 0.019761
-0.128551 0.022794 -0.325572
-0.244069 -0.156753 -0.182190
-0.262204 -0.403209 0.184601
-0.108003 0.127081 0.392467
0.098574 -0.243703 0.083060
0.127638 0.272252 -0.030470
0.022525 0.390111 0.214316
0.118674 0.511359 -0.118236
-0.408329 0.129194 -0.241109
-0.266010 -0.129921 -0.211191
0.031135 0.376860 -0.260493
-0.027788 0.501158 0.091355
0.066923 -0.193642 -0.238440
0.149591 0.051735 -0.067265
0.092699 0.435295 0.039509
0.130367 -0.460104 0.017261
0.026561 -0.055579 0.241615
-0.148860 -0.168870 0.145401
-0.099085 0.142532 0.228080
0.151449 -0.447259 -0.038315
0.055620 -0.431892 -0.074756
0.151288 -0.445814 -0.055097
0.096574 0.338515 0.039347
-0.079953 -0.413491 0.207293
-0.080350 0.142661 0.265168
-0.033559 0.158914 0.374280
-0.305361 0.158261 -0.099470
-0.183446 -0.139521 -0.197900
-0.179722 -0.370656 0.252282
-0.127884 -0.471466 0.284105
0.169647 -0.051720 -0.196567
0.153942 -0.442200 -0.057074
0.140873 0.406036 -0.079358
-0.157711 0.071901 0.354512
-0.188190 0.239966 -0.271342
-0.149668 0.337304 0.189114
0.015560 -0.061160 0.177563
-0.192745 0.280450 0.354238
0.043177 0.395831 0.163626
0.184068 0.316750 -0.342885
-0.124775 -0.454498 0.177052
0.118513 -0.405498 -0.212295
-0.191109 -0.170340 -0.137835
-0.039162 -0.256129 0.140476
-0.096191 -0.444249 0.007122
-0.163176 -0.275932 -0.041691
0.207867 -0.382857 -0.186884
0.078020 0.441663 -0.237755
-0.247795 -0.328470 0.134621
-0.230184 0.346212 -0.096569
0.194319 -0.229121 -0.190216
-0.061933 -0.038247 0.299339
-0.347602 0.221463 -0.160540
-0.018219 -0.145629 0.353621
-0.090230 0.197195 0.429130
-0.291536 0.064871 -0.242856
-0.115482 0.128658 0.197988
-0.062025 0.025804 0.393323
0.029309 0.492098 0.040156
-0.206405 0.024649 0.029690
-0.007901 0.487117 -0.104758
0.068472 0.464097 -0.048342
0.023888 0.486746 -0.056302
-0.089302 0.123498 0.148920
-0.027811 -0.329362 0.124797
0.190316 0.221054 -0.285861
0.037534 -0.351385 -0.002090
-0.246439 -0.075985 -0.123021
0.174124 0.349012 -0.130293
0.093579 0.305724 0.050785
0.098611 -0.088697 -0.254200
0.048076 0.413745 0.151173
-0.271021 -0.222774 0.155681
-0.291449 -0.068606 -0.243910
-0.128912 -0.498585 0.215937
0.081181 -0.461617 0.032717
-0.111138 -0.184566 -0.026779
0.015397 -0.274520 -0.143420
-0.017159 -0.303340 -0.067009
-0.154007 -0.453266 0.094578
-0.173628 -0.184604 -0.158502
-0.167635 -0.450183 0.055265
-0.027704 0.295954 -0.262381
-0.324290 -0.287095 0.019337
0.116892 -0.005434 -0.256723
-0.166630 -0.373980 0.221680
-0.069582 -0.167048 0.243339
-0.311975 0.127985 -0.132832
-0.091011 0.472944 0.315934
-0.092605 -0.028727 0.319069
0.133128 -0.431058 -0.168814
-0.135633 0.482269 0.158777
-0.260052 0.028644 -0.262685
0.097450 0.189640 -0.262974
0.225740 0.237939 -0.279761
-0.282281 0.222690 -0.200679
-0.349617 0.185930 -0.216681
-0.182018 0.316603 0.340880
-0.016927 0.356263 0.306061
-0.154290 0.464315 0.177080
-0.125721 0.062615 -0.330710
0.124864 -0.073135 0.003092
-0.148519 0.070913 -0.326563
-0.036182 -0.064522 0.218186
0.034329 0.297490 -0.242197
0.195643 0.193151 -0.198415
-0.162725 0.411083 0.220284
-0.066173 -0.157149 0.241238
-0.033863 -0.303607 0.136688
0.235133 0.296733 -0.308843
0.151064 0.491417 -0.112454
0.089641 0.032494 0.083839
-0.317015 0.211442 -0.128163
-0.079424 -0.378509 -0.045503
0.090388 -0.127434 0.095476
-0.296167 -0.005049 -0.253556
0.078356 -0.497831 -0.018619
-0.122300 0.182214 0.418479
0.011600 -0.220404 0.132945
0.159449 0.280369 -0.091073
-0.004811 0.454801 0.269818
0.117142 0.256844 -0.273857
-0.103917 -0.201538 0.224347
-0.343060 -0.424790 -0.017480
-0.161578 0.453011 0.244131
-0.127186 0.164428 -0.320157
-0.267807 0.252609 -0.002329
-0.107303 0.002620 -0.323710
0.179999 0.221591 -0.251751
-0.278906 -0.023397 -0.147533
0.080397 0.387733 0.075051
-0.146402 0.150972 0.332583
0.014812 0.347191 -0.237669
-0.149870 -0.366267 0.212314
0.113166 0.335369 -0.273006
-0.265196 -0.358634 0.118727
0.098605 -0.204531 -0.230085
-0.184818 -0.168392 0.086113
0.145419 0.090409 -0.059471
-0.191706 -0.131304 -0.101038
0.160793 -0.289059 -0.042173
-0.003805 0.494087 -0.035290
-0.097778 0.438681 -0.102951
-0.125303 0.279781 0.421797
-0.082293 0.189277 0.415651
-0.111174 -0.425148 0.066156
-0.251331 -0.255965 0.147919
-0.154363 0.459363 0.059315
-0.116493 -0.415364 0.263285
-0.120555 0.456790 0.326852
0.032379 0.467622 -0.224858
0.084685 -0.195582 -0.227976
0.099405 -0.496587 -0.002327
0.175654 -0.081505 -0.117534
0.067071 0.311377 0.114922
-0.193121 0.105441 0.155381
-0.026148 0.180256 0.370556
-0.085278 0.134526 0.255079
-0.281131 0.065241 -0.040741
0.130986 -0.050465 -0.010312
0.100325 0.243583 0.038296
-0.087297 0.302552 0.434116
0.106858 -0.292659 -0.114343
-0.221702 -0.367809 0.248984
0.203178 -0.253561 -0.216721
-0.059810 -0.245426 -0.071813
-0.243592 0.091436 -0.274879
-0.231541 -0.189218 0.184549
0.021052 0.377906 0.218731
-0.001354 0.147484 0.313907
0.017215 0.485440 0.197453
-0.050066 0.338804 -0.256579
0.164917 0.325125 -0.106112
-0.127303 -0.425516 -0.064480
0.063164 0.274060 0.127724
-0.219250 0.399141 0.323544
-0.225168 -0.447810 0.291386
-0.196616 0.472317 0.153579
-0.129713 0.096108 -0.331433
-0.243322 0.101780 0.055218
-0.063096 0.386693 0.404194
0.168761 -0.348231 -0.058212
-0.119150 -0.446741 -0.049510
-0.080805 -0.210519 -0.205744
-0.222668 0.262311 0.095925
-0.076950 0.055577 0.129552
-0.201700 -0.259551 0.169072
0.040178 0.345493 -0.202522
-0.116230 -0.357169 -0.056460
-0.255749 -0.249278 0.142231
0.040017 0.376963 0.172687
0.109518 0.251428 0.015622
-0.129956 0.467903 0.297492
-0.075313 -0.253697 0.176918
0.065576 -0.051702 -0.283284
-0.253031 0.107066 0.013325
-0.151830 0.453667 0.014739
-0.015211 -0.071826 0.132560
-0.156644 0.072647 0.348565
-0.038487 0.126710 0.376518
0.159644 0.349452 -0.098365
0.104107 0.297263 0.024843
0.061387 -0.408369 0.061390
-0.314219 -0.347204 -0.014468
-0.061040 0.475688 -0.139680
-0.158903 0.472709 0.198679
-0.265320 -0.447889 0.213581
0.008920 -0.311371 0.114222
-0.093445 -0.453040 0.207253
0.065766 -0.389043 0.072138
-0.140290 0.160385 0.225566
-0.106919 -0.227579 -0.076787
-0.054376 -0.258224 0.146102
-0.031169 0.096406 0.362494
0.071996 -0.304458 0.087571
-0.279627 -0.307958 -0.051004
-0.076649 0.507164 0.218055
-0.330302 -0.318939 0.018034
-0.082651 0.428764 -0.263211
0.001388 0.483804 -0.112839
-0.203283 0.442630 0.018533
-0.090023 -0.138195 0.210915
-0.165818 0.226474 -0.288173
-0.163973 0.244036 0.187016
-0.172636 0.266317 0.183155
-0.013593 0.325907 0.303630
-0.125613 -0.018294 -0.317987
