-0.217932 0.016475 0.306828
0.095746 0.178810 -0.221756
0.252618 0.039967 -0.050258
0.259192 -0.081902 0.141606
-0.274308 -0.088008 0.279672
0.296386 0.098864 -0.325924
0.270664 -0.059925 -0.077917
0.246226 -0.062041 -0.034244
-0.101061 -0.060967 -0.266267
0.171465 0.266980 -0.117489
0.290046 -0.100851 -0.320352
-0.106684 -0.150093 0.253826
-0.149205 -0.135898 -0.201528
-0.103968 0.159408 -0.185586
0.222095 -0.158499 -0.220329
-0.170547 0.157893 0.323330
-0.265992 0.086097 -0.053179
0.205349 0.179708 0.117893
0.232902 -0.153984 -0.014797
-0.200891 0.188057 0.082638
0.068925 -0.224642 0.107436
-0.228149 -0.043000 -0.139132
-0.119842 -0.221451 -0.119642
0.041426 0.297386 0.130916
0.116875 0.133878 0.179609
-0.166201 -0.179614 -0.142851
0.027670 -0.189405 0.207882
-0.238864 -0.177742 0.148709
0.179559 -0.201765 -0.155049
-0.167932 -0.308554 0.012590
0.281810 -0.066116 -0.089029
0.275275 -0.049937 -0.339531
-0.309863 -0.043245 0.283790
0.262180 0.074966 0.034450
0.261348 -0.097749 -0.098101
0.239842 -0.137185 -0.303013
-0.293555 0.038815 0.061980
0.007477 0.269951 -0.100726
0.028980 -0.126429 0.233299
-0.248852 0.147033 -0.022723
-0.113732 -0.195679 -0.141233
0.083532 0.318363 0.092338
-0.196323 -0.294331 0.085453
0.257363 0.049389 -0.164359
-0.018517 0.139538 -0.247188
-0.066973 0.117318 0.260975
-0.201582 0.142826 0.261192
0.174860 0.190647 0.137742
-0.236545 0.057641 0.176742
0.237063 -0.093681 -0.232069
0.053941 0.059079 -0.248528
-0.259030 -0.046769 -0.075654
0.038116 -0.237785 0.163108
-0.300924 -0.176191 0.127184
0.253284 -0.063816 -0.129244
-0.146493 -0.158190 -0.185962
-0.163612 -0.355853 0.070476
-0.075918 -0.052039 -0.245152
-0.049131 0.148814 0.261019
0.045147 0.387838 0.058039
0.041072 0.254680 -0.164408
-0.025828 -0.387071 -0.155374
-0.282579 -0.125775 0.219475
-0.178648 0.198783 0.144612
0.071793 -0.307239 0.026032
-0.077679 0.153302 0.282515
-0.090198 -0.262301 -0.146655
0.178985 0.206726 0.072500
-0.045153 0.140422 0.255784
0.198738 -0.165407 0.096290
-0.160510 -0.221616 -0.057023
-0.204966 -0.154623 -0.103544
0.249257 0.091380 -0.180634
0.041560 0.146321 -0.210197
-0.013291 -0.145743 0.211555
0.042996 0.124095 -0.221110
-0.242687 -0.079132 -0.123239
-0.167805 0.205130 0.148930
0.265308 -0.030445 0.033064
0.024702 0.450138 0.140560
0.045049 -0.218642 -0.229947
-0.206190 0.156215 0.050868
-0.057592 0.054647 0.264379
0.008420 0.268177 -0.054799
-0.029429 -0.390458 -0.179801
0.115937 0.310588 -0.058595
0.231053 0.150963 -0.297433
-0.261596 0.020636 -0.078775
-0.063978 0.048717 0.265400
0.247029 0.000137 0.117292
0.279245 -0.079363 -0.295060
-0.135606 -0.097948 0.265504
0.145016 0.208246 -0.239028
-0.254490 0.081949 -0.120323
0.278800 -0.069370 -0.333836
-0.000006 -0.009329 0.270653
-0.149663 -0.103222 -0.193009
-0.143356 0.202361 -0.072748
-0.131452 0.219342 0.015631
0.032353 -0.300272 -0.008101
0.043180 0.278528 -0.057840
0.001908 0.283886 -0.023621
0.226341 0.015042 0.196854
-0.137860 -0.183321 -0.128258
0.218910 0.115270 0.098838
-0.092923 0.205971 -0.167911
-0.101861 0.258720 -0.045512
0.199337 -0.003960 0.210271
-0.114337 0.075653 -0.243620
-0.066888 0.272480 0.021987
-0.080511 -0.085439 0.284899
-0.077322 -0.032332 0.293537
0.183931 0.194130 -0.263469
0.033736 -0.136249 -0.309623
-0.261571 -0.207770 0.003119
0.145496 -0.177265 0.155734
0.214498 0.302733 -0.014688
-0.088292 -0.322625 -0.133679
-0.103146 -0.028757 -0.255847
-0.058678 -0.397305 -0.078838
-0.064854 -0.116252 -0.217850
-0.016673 0.101047 0.246742
0.099022 -0.183676 -0.247985
0.156549 0.337126 -0.052597
0.303415 0.175722 -0.100634
0.253295 -0.006976 -0.010068
0.176680 0.201301 -0.257853
-0.083555 0.273014 -0.074830
0.291635 -0.095492 -0.313154
0.032562 0.037910 0.286149
-0.157967 0.221295 0.063695
0.126466 0.022308 0.232426
-0.260094 0.049290 -0.047940
0.239298 -0.125093 -0.310406
-0.050732 -0.350969 -0.183895
0.257576 0.056864 -0.243244
0.243938 -0.020070 -0.226219
-0.250046 0.022097 0.164558
-0.204580 0.183468 0.082651
0.127979 0.210276 -0.229198
-0.035888 -0.238114 -0.222817
0.188462 -0.198480 0.011851
-0.078343 0.273120 -0.062085
-0.237563 0.048643 0.154218
-0.044278 -0.335051 -0.039845
-0.142987 -0.388370 -0.013790
-0.143458 -0.288362 -0.049725
0.151831 0.290561 -0.090834
-0.100182 -0.280536 -0.127081
0.227456 -0.109659 -0.118496
-0.245787 -0.156223 0.209809
-0.049313 -0.041257 0.290862
0.023032 0.212654 -0.171445
0.251217 -0.097289 -0.049429
0.140389 0.239199 -0.210994
-0.226533 -0.208118 -0.072024
0.063913 0.333922 0.107283
-0.240108 -0.079037 -0.129254
0.223408 0.143230 0.002111
-0.198928 -0.110547 -0.112018
-0.256289 0.098373 0.102966
-0.061059 -0.427298 -0.151909
0.189011 -0.201644 0.034379
0.087795 0.291369 0.094346
0.112974 -0.117010 -0.264518
-0.101515 -0.153359 0.242357
0.183759 -0.202837 -0.258838
-0.218195 0.161118 0.076365
0.307045 0.071282 -0.320832
-0.190773 -0.254385 0.042792
0.009174 0.262754 -0.072169
-0.194685 -0.284306 0.074317
0.061447 0.113457 0.224995
0.073771 0.362951 0.101831
0.070399 -0.282336 -0.187465
-0.230193 0.093363 0.244989
0.190353 0.306466 -0.090806
-0.321267 -0.122071 0.245057
0.124636 -0.101535 0.236083
0.257740 -0.060554 0.133151
0.216623 -0.112461 -0.194784
0.068872 -0.307811 -0.046086
-0.338535 -0.093302 0.305854
-0.005012 0.076232 0.259608
-0.289638 -0.197151 0.062877
0.089992 -0.060266 0.249571
0.258581 -0.135655 -0.303252
0.183869 0.059074 -0.289553
0.055779 0.213000 -0.189086
-0.281628 -0.162136 0.142704
-0.228619 -0.197994 0.134744
0.067141 0.255189 0.171763
0.315310 0.089162 -0.348409
-0.015180 0.063326 -0.258163
0.220816 0.256184 -0.026496
-0.134042 -0.398619 0.064678
0.211660 -0.155272 0.042048
0.117070 0.278344 -0.090120
0.035647 -0.016542 -0.309952
-0.069882 -0.311874 0.031998
0.158628 0.129584 0.147681
0.310424 -0.021963 -0.332034
0.145804 0.345490 0.045142
0.163677 -0.193855 -0.061767
0.235983 -0.037555 -0.209029
0.258682 -0.102362 -0.320579
0.090569 -0.197587 0.131598
0.168996 0.151564 -0.265837
0.057000 -0.304863 -0.043375
-0.083037 -0.299008 -0.148166
0.136387 0.417795 0.034363
0.267637 -0.049283 0.095358
-0.212795 -0.198300 -0.004003
-0.045010 0.300797 0.185498
-0.164619 -0.020612 -0.227412
-0.223544 -0.146395 -0.062185
-0.174657 -0.141204 -0.156723
0.053749 0.086566 0.252593
0.075083 0.327028 0.098776
-0.255323 0.069301 -0.126380
0.304082 -0.079881 -0.329128
-0.063848 0.272754 -0.066938
0.249101 0.143649 -0.163069
-0.144094 0.245007 0.075687
-0.294264 -0.162377 0.100155
0.232951 0.111382 -0.305423
-0.122914 0.302007 0.150963
-0.105779 0.195005 0.319351
-0.022538 0.306868 0.024223
-0.049743 0.262408 0.208727
0.220133 0.081016 0.105254
-0.280772 -0.204100 0.037147
0.151536 -0.003689 0.228629
-0.177566 -0.190120 -0.102321
0.185730 0.209840 0.124774
0.126064 0.441013 0.069010
0.083005 0.264347 -0.165587
0.170029 0.143936 0.133832
-0.066313 -0.381214 -0.154081
-0.107958 -0.236839 0.167259
-0.035923 -0.340342 -0.061771
0.127011 -0.240125 -0.230691
0.213804 0.258799 -0.020446
-0.021862 -0.369378 -0.193571
0.253435 -0.036183 0.192341
0.256599 -0.059226 0.182413
-0.222377 0.085477 0.168458
0.246544 -0.110819 0.196590
0.266837 -0.018967 0.083552
-0.252876 -0.089536 0.036587
-0.090924 -0.458398 -0.090784
0.292717 -0.102137 -0.315190
-0.019501 0.287807 -0.112351
-0.117648 -0.271244 0.147851
-0.244451 -0.072458 0.008907
-0.020110 -0.370218 -0.128988
0.146157 0.231142 0.123363
-0.063190 -0.323422 0.006833
0.236288 0.090015 0.087121
0.232948 -0.042045 -0.181119
0.048661 0.289810 0.129051
0.251614 0.002636 -0.022608
-0.102696 -0.170321 -0.166692
0.104325 0.158652 0.177654
0.183688 0.394207 0.015198
0.119935 -0.215180 0.059146
-0.113191 0.320029 0.152007
-0.240855 0.046591 0.171882
-0.241419 -0.083960 -0.003370
0.206999 -0.146486 0.143266
0.146524 -0.210126 -0.003963
0.062285 -0.305015 -0.052017
0.266588 -0.090530 -0.278309
0.299928 -0.000549 -0.108833
-0.225786 0.079304 0.132636
0.030601 0.156441 0.219122
-0.261268 0.035551 -0.117028
0.271404 0.086294 -0.266591
-0.130169 -0.278094 -0.078279
-0.180996 0.169028 0.251691
0.029776 0.452077 0.139649
0.019407 0.352194 0.140325
0.187756 -0.202515 -0.170668
-0.241902 -0.003445 -0.158184
0.090586 -0.137749 0.215492
0.178719 -0.239291 -0.163209
-0.066456 -0.057700 0.296298
0.229384 -0.119484 0.062043
-0.193059 -0.222375 0.015843
-0.105376 -0.111563 0.296135
-0.088450 -0.363693 -0.123223
-0.261165 -0.096213 0.059253
-0.015758 0.093071 0.250195
0.221434 -0.025013 0.207169
0.040727 -0.144555 -0.272436
0.158079 -0.121497 0.213264
-0.060261 -0.300933 0.033218
-0.206529 0.165808 0.064585
0.075690 0.313188 -0.035786
0.277233 0.246953 -0.082007
0.224377 0.314031 -0.058341
-0.260273 -0.091140 0.266707
0.011953 0.370253 0.146982
0.221896 -0.087318 0.229301
-0.192151 0.163226 0.030453
0.004156 -0.327646 -0.177468
-0.013191 0.327507 0.039555
-0.089665 -0.068242 0.298296
-0.087553 0.299083 0.075465
-0.190147 0.081786 0.327692
0.145657 -0.011333 0.232615
-0.202519 -0.198538 -0.088047
-0.019694 0.255029 0.212703
-0.258266 0.025481 0.209578
-0.027192 -0.288392 0.025680
0.181007 -0.138578 -0.290198
-0.077014 -0.428241 -0.126065
-0.249850 -0.019078 0.308901
0.099678 0.261281 0.106846
0.077846 -0.095202 0.251220
0.241266 0.000563 0.168991
0.307595 0.055844 -0.114290
0.252144 0.067393 0.005067
0.187010 -0.159148 -0.133742
0.155581 0.386960 0.046342
0.028838 -0.207486 -0.256236
-0.104055 -0.243152 -0.132783
0.113423 -0.219721 0.048426
-0.151211 0.159755 0.348473
0.256552 0.147066 -0.150103
0.191821 0.386061 0.007647
-0.043581 0.390822 0.132537
-0.261687 0.053781 -0.091988
-0.231943 -0.099720 0.244212
0.249328 0.040298 -0.225125
0.322069 0.006998 -0.344938
-0.047475 -0.240913 0.117482
-0.102824 0.325651 0.151428
-0.204709 0.012721 -0.209486
0.219745 -0.135808 0.094118
-0.248599 -0.151797 -0.007544
0.210743 0.167045 0.023749
0.130461 0.242148 0.097606
-0.014000 -0.065360 0.245396
-0.238246 -0.055881 0.274963
0.173081 -0.268916 -0.157928
0.236694 -0.098821 0.030706
-0.210674 0.174164 0.080683
-0.076104 0.137495 0.273501
-0.276233 -0.144254 0.181038
0.285322 -0.122151 -0.306900
0.136301 0.235912 0.125052
-0.160554 0.164126 0.323369
0.094594 -0.288405 -0.132811
0.254770 0.052224 -0.057737
-0.172728 0.198733 0.054824
0.188366 0.199844 0.080392
-0.006432 -0.332680 -0.193214
0.277920 0.005920 -0.338908
-0.216503 -0.054274 0.263085
-0.255628 0.018814 0.065462
0.266796 -0.052142 0.098434
0.100082 0.015840 0.239851
-0.017435 0.285960 -0.100942
-0.092946 0.199182 0.323915
0.138609 0.228721 0.175895
-0.091679 -0.050898 0.290588
-0.066092 -0.135329 -0.210850
0.068236 -0.297799 0.036837
0.224087 -0.077188 -0.191580
-0.086914 -0.467319 -0.080810
-0.229962 0.065770 0.146049
0.058816 -0.030628 0.245881
0.194625 -0.146336 -0.148592
0.053154 -0.294237 -0.167881
-0.189551 0.168770 -0.060444
-0.060127 -0.332471 -0.174382
0.283718 0.106333 -0.331401
0.246738 0.074070 -0.196230
-0.163297 -0.282255 -0.010723
-0.019044 -0.049911 0.255302
-0.290483 -0.154833 0.163090
-0.068854 0.120229 -0.219352
0.296384 -0.096185 -0.319601
-0.169124 0.044580 -0.248385
-0.137013 0.183153 0.310582
-0.136192 -0.278633 0.173337
-0.175973 0.178967 0.264910
0.093293 -0.316418 -0.043151
-0.105862 -0.437457 -0.020320
-0.068491 -0.359833 -0.024792
-0.320857 -0.098981 0.241439
-0.166462 0.279878 0.152125
-0.259464 -0.175769 0.004985
-0.031515 0.009920 0.297440
-0.153915 0.045783 -0.242950
0.129369 -0.011508 0.236523
-0.024334 0.302124 0.020204
0.015427 0.262238 0.186442
0.108105 0.098762 -0.249389
-0.305407 -0.130108 0.159758
0.193730 -0.159189 -0.163255
-0.233093 0.189708 0.126567
-0.116639 0.010905 -0.241147
0.244330 0.029670 -0.202547
-0.294555 -0.147385 0.180337
0.006935 0.435746 0.142923
-0.197930 0.010312 -0.212710
0.009126 -0.303978 -0.062276
-0.263744 0.098423 -0.045099
-0.143512 0.282306 0.116892
0.102599 -0.037687 0.246010
-0.253875 -0.001856 -0.050066
0.118448 -0.276098 -0.062527
-0.085046 0.244038 -0.012699
-0.247224 -0.012527 -0.086276
-0.117586 0.147078 0.310191
-0.133776 0.208527 -0.145669
0.158543 -0.207757 0.037451
-0.265445 0.006307 0.047282
-0.146637 0.210591 0.169681
0.225549 0.095233 -0.304282
0.179614 0.180551 0.132075
0.094652 -0.319885 -0.028289
0.030214 -0.299183 0.004204
-0.017103 0.343308 0.154458
-0.099210 0.218603 0.268427
-0.146853 0.288523 0.127276
-0.162571 0.195529 -0.135239
-0.165784 0.184463 0.230931
0.229135 0.215840 -0.158750
0.087622 -0.157604 0.192263
0.035613 -0.299018 0.031346
-0.289957 -0.136925 0.199039
-0.184539 -0.317557 0.093206
0.162161 -0.228842 -0.130783
-0.077722 -0.441928 -0.078467
-0.009657 -0.226186 -0.255615
0.053827 0.128559 0.216568
-0.228646 0.090495 0.117924
0.183756 -0.109639 0.220540
0.148647 0.229624 0.112628
0.174173 0.109192 -0.277101
0.236000 0.009626 0.183323
-0.244774 0.049783 0.201756
0.126059 0.188789 0.166422
0.043131 0.207534 0.225839
-0.051812 -0.201494 -0.209881
0.140770 0.232282 -0.204168
0.102343 0.397686 0.030121
0.209734 -0.150111 -0.086303
0.230242 0.304185 -0.064506
-0.047452 -0.438023 -0.154337
0.119599 -0.173887 0.161336
-0.147257 0.212227 0.033702
0.020692 -0.306873 -0.105586
-0.171765 -0.209253 -0.052312
0.041007 0.074012 -0.247551
0.242173 -0.023711 -0.323080
-0.205992 -0.120752 0.226802
0.210827 0.317222 -0.064114
0.032264 -0.301990 -0.115312
0.259989 0.106837 -0.069920
-0.144933 0.226427 0.156303
0.254116 0.095253 -0.232169
0.090403 0.231310 0.207298
-0.256324 -0.007852 -0.047983
0.221167 -0.167832 0.008574
0.096133 0.100804 0.225863
-0.040087 0.184882 -0.173235
-0.071271 -0.341933 -0.000882
0.152746 -0.011594 0.230834
-0.225075 0.097401 0.358723
0.198625 0.277499 -0.116165
-0.004165 -0.321393 -0.091769
-0.262292 -0.001177 0.043738
-0.184223 -0.073247 -0.172490
0.183780 -0.131542 0.207511
0.225676 -0.109843 -0.214531
-0.112457 -0.427032 -0.063187
0.122688 -0.125444 0.213992
0.066849 0.268066 0.135138
-0.327890 -0.069135 0.305132
0.071244 0.234570 0.222254
-0.172091 0.102838 -0.226615
-0.107092 -0.361283 -0.091629
-0.163695 0.214211 0.149048
-0.166677 0.179637 0.186079
0.025091 0.060902 0.276460
-0.115420 -0.438313 -0.002386
0.306196 0.048518 -0.122276
0.150988 -0.066576 -0.282129
0.237324 0.215053 -0.044694
-0.077362 -0.264185 0.101606
0.023138 -0.028984 0.250051
-0.153574 0.196682 0.196875
0.189972 -0.186884 -0.031032
0.028222 0.024094 0.276233
0.031489 -0.061178 -0.307210
-0.004505 -0.317006 -0.232189
0.306108 0.002874 -0.352891
-0.079624 0.034008 -0.266121
-0.049620 -0.364979 -0.182725
0.068036 0.398863 0.052940
0.024819 -0.083065 -0.300569
0.240367 0.125585 -0.043626
0.216743 -0.108355 -0.309719
-0.273790 -0.029811 0.175596
-0.246960 0.029832 -0.182350
-0.246005 -0.169185 0.145114
0.195104 0.199053 -0.268228
0.083184 0.258190 0.139143
-0.259375 -0.154636 0.016914
-0.200664 0.127097 0.174448
0.057689 0.245556 -0.177736
-0.034156 -0.331916 -0.210401
0.086430 0.469382 0.116319
-0.121292 0.121081 0.296548
-0.312313 -0.017070 0.335268
0.027942 0.328123 0.134069
-0.144056 -0.330251 0.141612
0.170350 -0.238244 -0.148578
0.229292 0.319083 -0.022171
0.252374 0.000313 -0.017720
0.247213 0.234595 -0.050598
0.171196 -0.182499 -0.107948
0.144795 0.230355 -0.207940
-0.180099 0.194011 -0.046238
-0.038983 -0.352995 -0.072018
-0.079925 0.288382 0.162815
-0.109472 -0.132705 -0.197413
-0.158623 0.158752 0.338900
-0.182765 -0.308463 0.110024
-0.238492 0.107913 -0.217367
-0.329882 -0.039074 0.365512
0.155770 0.216208 -0.206645
0.101366 0.040384 0.245148
0.058492 0.453092 0.112394
0.155762 0.088950 0.199426
0.084720 0.275700 -0.177543
0.148217 0.231946 0.080089
0.187495 0.197984 0.054858
0.097849 0.056208 -0.254768
-0.123173 0.138275 -0.220723
0.288959 -0.096100 -0.309602
-0.173905 -0.233325 -0.019476
0.233630 -0.065729 -0.215726
0.053377 0.045354 0.275916
-0.099732 -0.196568 -0.156306
-0.164081 0.182623 -0.083988
0.255620 0.063151 0.011717
0.250183 0.054316 -0.045264
-0.081020 0.025549 0.269361
-0.055826 0.351660 0.102622
-0.313843 -0.059781 0.271989
0.018759 -0.156583 -0.292866
0.279635 -0.088952 -0.091898
-0.167469 -0.132767 -0.168090
-0.146532 -0.216763 -0.084242
0.170925 0.204243 -0.215492
0.037886 0.041122 0.284809
0.085516 0.272781 0.108586
0.205739 0.069041 0.143971
0.230409 0.229971 -0.134586
0.056539 0.175612 -0.203697
-0.069062 -0.288682 0.060894
-0.198967 0.176673 -0.120830
-0.098000 0.323169 0.112833
0.046253 0.359717 0.029226
-0.285140 0.006591 0.279341
-0.095662 0.058744 -0.263742
-0.128130 -0.419738 -0.023720
-0.224955 -0.195346 0.018473
-0.216850 -0.182503 -0.090391
-0.051686 -0.270615 -0.197851
-0.082127 0.223827 0.266547
0.041247 0.420437 0.093159
0.032490 -0.181602 -0.269036
-0.179584 0.218958 0.089615
0.165679 -0.005140 -0.287427
0.221690 0.153330 -0.013675
-0.052781 -0.296137 0.031979
0.160117 0.043257 0.222986
-0.030020 0.172830 -0.208484
-0.154719 -0.342348 -0.004370
-0.081528 -0.304860 0.057592
-0.014432 -0.372495 -0.149241
0.263406 0.293383 -0.051977
-0.127743 -0.258875 0.177028
0.176573 0.226985 0.022963
0.132100 0.154366 0.160053
-0.120075 -0.046426 0.270473
0.143788 -0.023396 -0.279109
-0.070634 0.346170 0.110721
0.072766 -0.295011 0.027452
-0.149880 0.204101 0.230732
0.021675 0.068133 -0.290878
0.272880 0.066537 0.051612
-0.062752 -0.217276 0.148103
-0.265903 0.070126 -0.044696
0.167231 0.304871 -0.084170
-0.274948 0.023599 0.273627
0.002658 0.339373 0.151294
-0.252032 -0.110802 0.022563
-0.195393 0.149647 -0.151562
0.204032 -0.116850 -0.303164
0.132439 0.417570 0.032837
0.011222 -0.300463 -0.196853
0.075411 -0.281214 0.027544
0.099391 0.275057 0.091919
-0.140206 -0.403592 -0.000253
0.004651 -0.207575 0.180249
-0.253075 -0.006052 0.320409
-0.158120 -0.287618 0.188303
-0.043929 0.393607 0.135732
0.013238 0.150848 0.227488
0.158819 -0.216514 -0.116804
-0.161834 0.268373 0.122642
0.221937 -0.133749 0.105331
0.225757 0.029408 0.172430
-0.297385 -0.004878 0.304256
0.220443 -0.001889 0.200492
-0.154786 0.206375 0.036411
0.131350 0.238077 0.162158
0.244580 0.026329 0.099687
-0.183867 -0.067578 -0.181484
0.058695 0.458640 0.117747
0.277008 -0.017289 -0.087386
0.005235 -0.199297 0.187342
-0.111420 -0.130505 -0.200937
-0.272204 -0.144215 0.181496
-0.054922 -0.064473 0.272454
0.120372 -0.215819 0.054913
0.215611 -0.140328 0.092544
-0.208280 -0.199148 -0.053542
0.178444 -0.153685 0.188443
0.064140 0.462231 0.129992
0.031910 -0.190981 -0.262203
0.199825 0.339017 0.003444
-0.088067 -0.461013 -0.095682
0.044636 0.450897 0.136581
-0.146044 0.205896 0.204041
-0.240371 -0.091908 0.253430
0.230349 0.166035 -0.036144
-0.092537 -0.242270 -0.149166
0.048479 -0.275326 0.098746
-0.208018 -0.212470 0.049387
0.106578 0.155412 -0.234074
-0.059556 0.361920 0.116806
-0.005695 0.129105 0.236754
-0.317139 -0.041138 0.354821
-0.108273 0.062548 -0.248685
-0.019080 0.248995 0.226563
-0.006023 -0.353392 -0.138946
0.005697 0.246704 0.236970
-0.133350 0.129089 -0.229519
0.201826 -0.176114 -0.280286
0.036927 -0.133442 0.234532
-0.051982 0.365570 0.113762
0.252082 0.207547 -0.124253
0.138335 0.216187 -0.233220
0.004964 -0.290560 0.021784
0.247519 0.121652 -0.176911
-0.218480 0.031782 -0.215426
0.251545 -0.106158 0.110725
-0.300542 0.007818 0.338579
0.132526 0.229627 -0.186879
0.231910 -0.000368 -0.317195
0.120549 -0.300589 -0.114161
0.227971 0.007347 -0.314970
-0.247094 -0.078480 -0.119836
0.110150 0.210333 0.183854
0.088943 0.169511 -0.221271
-0.002038 0.192557 -0.169848
-0.069197 0.098275 -0.231333
0.107142 0.244869 -0.206783
0.131737 0.237478 -0.140538
-0.026761 -0.311273 -0.223468
-0.011460 0.066453 -0.260742
0.056762 -0.244444 -0.217334
-0.175224 0.147055 0.339973
-0.208141 0.134653 0.264898
-0.129246 0.226788 -0.016314
-0.198045 -0.268651 0.076028
-0.165682 -0.281207 -0.005775
0.050732 -0.233172 0.133184
-0.085639 -0.004182 -0.272420
0.060634 0.288525 -0.054545
-0.214835 -0.244998 0.123249
-0.125125 -0.340496 0.096322
-0.002395 0.430248 0.144304
-0.170553 -0.356410 0.039145
-0.047722 -0.106626 -0.231943
-0.185861 0.171180 0.284503
-0.214692 -0.134581 -0.078099
0.218222 0.183351 -0.022715
0.075875 -0.128726 0.249006
-0.176570 -0.292745 0.142557
0.229615 0.021985 0.177185
0.073945 0.282732 -0.174076
0.156275 -0.215513 -0.109809
-0.289151 0.062715 0.076457
-0.096070 0.217785 0.271632
0.241421 -0.019382 -0.171485
0.064262 -0.257752 0.071913
-0.114840 -0.206571 -0.134023
0.253563 0.131221 -0.230647
-0.136511 -0.216212 -0.099612
0.267045 0.082682 0.067375
0.146379 0.262205 -0.115024
0.161009 -0.214805 -0.121088
-0.242880 0.083346 0.023650
0.115361 -0.088014 0.257110
0.253572 -0.046728 0.014886
-0.140249 0.217283 0.258445
0.274996 -0.044351 0.064013
0.214224 0.169208 -0.249855
-0.031540 -0.181969 -0.235628
-0.033870 -0.369710 -0.100914
0.068682 0.164173 0.198509
0.171604 -0.055535 0.244903
0.247104 0.071978 -0.040080
-0.071684 -0.176914 -0.193406
0.227809 0.153036 0.054769
0.302286 0.045056 -0.347921
-0.004106 0.308607 0.011412
-0.327996 -0.083336 0.285517
-0.016635 0.161831 -0.209026
0.177032 0.356286 -0.039839
0.122746 0.279018 0.064856
-0.210757 -0.233166 0.092822
-0.159308 -0.084726 0.250141
0.243628 0.146803 -0.279226
0.118062 0.192965 -0.229120
-0.073266 0.214288 -0.116511
-0.114527 -0.149836 -0.177433
-0.068927 -0.426600 -0.083756
0.093920 0.435079 0.070565
-0.042312 0.279326 0.192792
-0.087962 0.348633 0.129914
0.162573 -0.203617 0.084304
-0.089560 0.203945 0.313183
0.212195 0.186028 -0.265034
0.163031 0.140687 -0.265260
-0.140628 -0.392626 -0.017484
-0.057494 -0.250996 0.105177
-0.173828 -0.271432 0.168797
-0.047308 0.200643 0.288417
-0.099691 -0.012240 -0.259405
-0.081346 -0.400802 -0.125725
-0.004610 0.236380 0.279322
-0.016504 0.261490 -0.064436
-0.025695 -0.295489 0.007247
0.257742 0.021099 -0.159670
0.158170 -0.115305 0.217585
0.213407 0.129043 0.102540
0.180267 0.088361 -0.283604
-0.226293 -0.104283 -0.049998
-0.248240 0.099961 0.054410
0.117268 0.144891 -0.241953
0.234006 -0.100682 0.014660
0.149575 0.314102 -0.069545
0.062678 0.308797 -0.033117
-0.023957 0.240464 0.251111
-0.211948 -0.246698 0.112306
-0.150236 0.311088 0.154810
-0.217345 0.030171 0.315288
0.048867 -0.301492 -0.061050
0.146316 0.389464 -0.002090
0.106510 0.454237 0.098008
-0.274363 -0.118121 0.081075
0.278357 -0.037181 -0.122330
0.133126 0.160181 0.158309
-0.326014 -0.042879 0.339750
-0.049111 -0.433991 -0.168735
0.186542 0.116726 -0.281588
-0.028412 0.315997 0.039734
-0.157548 0.206276 0.156760
0.138119 -0.269849 -0.098692
0.084756 -0.242153 0.046255
0.011436 -0.296583 -0.010285
-0.097760 0.097995 -0.253450
-0.263854 -0.142240 0.035519
0.057212 -0.248889 0.098137
-0.147481 0.191444 -0.100064
0.160077 -0.135768 -0.281008
0.245572 -0.074394 0.020419
0.078879 0.302369 0.098645
0.069863 0.253589 -0.130821
-0.187665 -0.191289 -0.137911
0.009233 -0.243581 -0.276239
0.216928 0.320966 -0.012744
-0.195162 0.138401 0.162532
0.173874 0.176164 -0.262673
-0.268031 0.024665 -0.118582
0.249578 0.104364 -0.055299
0.039115 -0.303636 -0.154144
-0.113257 0.268550 -0.050101
-0.284537 0.055912 0.075358
-0.022267 0.176675 -0.180983
-0.050914 -0.414845 -0.109608
-0.099066 0.049251 -0.258286
-0.218814 -0.074237 -0.162975
-0.260489 -0.046226 -0.011049
-0.273248 -0.098600 0.094616
-0.251498 0.128481 0.088940
-0.155111 0.224401 0.063873
0.051213 0.107376 -0.229581
-0.183521 0.200780 0.073426
-0.220296 0.109263 0.245000
0.001587 -0.290963 0.017169
-0.261134 0.041564 0.013555
0.134628 -0.067202 -0.275770
0.011673 -0.261230 -0.262345
-0.180704 0.152262 -0.197540
0.065056 -0.098648 0.248070
0.251455 0.081657 -0.225082
-0.227497 -0.106290 -0.045970
0.290779 0.210362 -0.094987
-0.131733 -0.308394 -0.063822
-0.014035 0.221659 -0.146210
-0.158916 0.018016 0.271474
-0.312202 -0.084316 0.302490
0.313323 0.080379 -0.338707
-0.125050 0.203355 -0.089433
0.113982 0.280196 0.073344
0.250678 -0.024784 0.141701
0.260437 -0.122892 -0.058754
0.229876 -0.212581 -0.250475
-0.095459 0.223206 -0.093347
-0.253514 -0.036317 0.017701
-0.107716 -0.228515 0.175400
-0.289258 -0.041823 0.214263
-0.256776 0.034039 -0.134382
0.032663 0.319783 0.131347
-0.268248 -0.024538 -0.038179
-0.123646 0.096514 0.285138
-0.020374 0.135599 -0.245789
0.036976 -0.149243 -0.281303
0.202901 0.185917 0.005449
-0.069400 -0.423731 -0.139812
0.232712 -0.078415 0.232151
0.090947 -0.298005 -0.105109
-0.240247 0.152871 0.124561
0.072033 0.165501 0.196406
-0.057360 -0.231171 0.130745
-0.131967 0.311767 0.135816
0.115962 0.411740 0.034900
-0.084385 0.251185 -0.039546
-0.082950 -0.378580 -0.015983
-0.097994 -0.317844 0.069177
0.054821 0.401255 0.064365
0.204849 -0.191081 -0.000902
0.237974 -0.051608 -0.221693
0.260244 -0.035645 -0.332041
-0.186377 -0.024766 -0.228547
-0.276672 -0.022107 0.330547
0.285732 0.031145 -0.340926
0.172268 0.049953 0.220416
-0.201526 -0.204092 0.000210
0.183169 0.218212 -0.249952
-0.215239 -0.198208 -0.013829
-0.283462 -0.020615 0.226049
0.156804 0.117763 0.157909
-0.187185 0.197416 -0.038556
-0.063530 0.373977 0.150401
-0.157200 -0.372537 0.012526
-0.035719 -0.134789 -0.237644
0.043978 -0.049891 -0.292408
0.149975 -0.074932 0.251531
-0.005978 0.306568 0.160349
0.000781 0.370199 0.073659
0.097178 0.080232 0.252110
0.257294 -0.106031 0.136490
-0.144601 0.177640 -0.152212
-0.294547 -0.154234 0.107868
0.229100 0.170698 -0.292432
0.202355 -0.167067 0.069154
0.222529 0.325423 -0.015875
0.010210 0.256716 -0.144745
0.038713 0.272930 -0.064047
0.120509 0.391308 0.013549
-0.154195 -0.046299 -0.208729
0.245969 0.097029 -0.314109
0.197790 0.187470 0.054897
-0.094744 -0.428410 -0.035080
-0.048015 0.187637 -0.211175
-0.165225 -0.178469 -0.146466
-0.217095 0.102706 0.363460
-0.167942 -0.219999 0.211228
0.196752 0.210344 0.000155
0.251667 0.150452 -0.061004
0.214022 0.138193 -0.291293
-0.114557 0.277565 0.152627
0.009359 0.226231 0.261272
0.110625 0.368063 -0.002313
0.236313 -0.171749 -0.024055
0.178383 0.183823 0.133688
0.050929 0.113920 -0.226779
-0.007856 -0.318478 -0.078392
-0.254289 0.061085 -0.107046
0.110656 -0.291201 -0.130477
0.098430 0.167099 0.180688
-0.190781 -0.001560 -0.215419
-0.065552 0.033896 0.270769
-0.212795 -0.210834 0.174291
-0.090936 -0.410509 -0.106665
-0.112343 -0.409564 0.013667
-0.018630 -0.139048 -0.253991
-0.159418 -0.309109 -0.006852
0.112860 -0.092905 -0.266890
0.071019 -0.307085 -0.053519
0.093036 0.431643 0.067852
0.018468 0.040385 -0.289685
-0.235721 -0.070547 -0.145301
-0.093709 0.206565 -0.112253
-0.086480 0.173925 -0.189005
0.251240 0.002686 -0.030141
0.036530 0.092493 0.248265
0.035592 -0.292092 0.072467
-0.268472 0.034335 0.270291
0.087009 0.241538 0.215872
-0.026775 0.373452 0.099760
0.245213 0.140038 -0.174735
0.023672 0.013411 0.270960
0.096125 0.428903 0.099078
-0.019854 0.192127 0.261781
0.227053 -0.124697 0.182322
0.087033 0.183177 0.189046
0.091252 0.335071 -0.022900
-0.021303 -0.367374 -0.221110
0.009096 0.054104 -0.279805
-0.218144 0.096834 0.186243
-0.210774 -0.092081 0.241318
0.249235 0.080005 -0.049877
0.221164 0.180334 -0.026122
-0.036361 -0.126216 0.218378
-0.157507 0.191754 -0.109528
0.305827 0.053725 -0.319973
-0.097116 -0.274712 -0.133454
-0.000461 0.226584 -0.151585
0.051527 -0.108404 -0.267478
-0.218360 0.171095 0.087951
0.185614 -0.206161 -0.255279
-0.242452 -0.068521 -0.010013
-0.021573 0.326191 0.167421
-0.059364 -0.142909 -0.214409
0.226139 0.049529 0.120549
-0.001896 0.188931 -0.172026
-0.056829 0.339891 0.091108
0.146361 0.280430 -0.098139
0.111007 -0.110291 -0.264619
-0.253455 0.119900 -0.126309
0.193548 0.191392 0.038829
0.241583 -0.075915 0.002202
0.235681 -0.148251 -0.239719
-0.082416 -0.403078 -0.038370
-0.099785 -0.271110 -0.130475
-0.237888 0.095833 -0.008773
-0.268250 0.063027 0.047352
0.170575 0.201526 -0.192820
0.205087 0.174862 -0.213605
-0.174107 -0.299633 0.023299
0.236274 0.146499 0.092677
0.068443 -0.264349 0.056606
-0.266456 0.059458 0.348193
-0.086304 0.284897 0.058055
0.252714 -0.028518 -0.002114
-0.220338 0.158505 -0.106992
-0.108408 -0.269709 0.134553
0.266467 0.089386 -0.077002
0.228859 -0.114197 0.025449
0.213679 0.070519 0.124092
0.161227 0.264748 -0.116612
-0.108048 -0.100146 -0.237392
-0.139992 -0.324155 0.139062
-0.150288 -0.319050 0.163808
-0.019300 0.235596 0.271948
0.188238 0.352689 -0.036418
-0.259254 -0.030134 -0.060206
0.255157 0.000567 -0.246397
0.020925 -0.222304 -0.277525
-0.014305 0.155952 -0.227298
0.031464 -0.299315 0.012355
-0.303441 -0.083815 0.204860
0.207639 -0.128792 -0.303998
-0.142570 0.022572 -0.238821
0.166574 -0.211272 -0.131866
0.200263 -0.154950 0.133054
-0.145118 -0.393502 0.033029
0.102977 0.251481 -0.118157
0.060035 -0.152050 0.239253
0.077558 0.069547 0.269438
0.332782 0.035295 -0.357122
0.236497 0.254513 -0.104565
0.066484 0.084599 0.253238
0.026337 0.268995 0.167273
0.069867 0.378062 0.031765
-0.023122 0.262734 0.200558
-0.200364 -0.225896 0.170234
-0.327919 -0.080615 0.289052
0.276848 -0.058186 -0.084829
0.243545 0.155267 -0.287217
-0.039779 0.148796 0.255514
0.241414 0.158043 -0.214101
0.161929 0.010959 -0.284624
0.038680 0.117642 0.228416
0.133265 -0.083704 -0.274576
0.065967 -0.287121 -0.153898
0.030028 -0.105034 0.237839
-0.082868 -0.344763 0.016234
0.218890 0.162080 -0.247445
0.065042 -0.103876 -0.260101
0.150074 0.100366 -0.267360
0.166361 0.367397 0.034179
-0.247648 0.073422 0.272055
0.280873 -0.008501 -0.290259
-0.276450 -0.156490 0.058170
0.013615 0.386679 0.080489
-0.177999 -0.073285 0.246599
0.059189 -0.086311 -0.265171
-0.059838 -0.119082 -0.220007
0.117480 -0.281361 -0.152838
0.078755 0.052185 -0.250755
0.218980 0.090700 -0.301740
0.077670 -0.170818 0.182792
-0.243767 0.114777 -0.141946
0.221278 -0.220776 -0.242500
0.155958 -0.129422 -0.280004
0.218193 0.190016 -0.276819
-0.106682 0.249704 0.214894
-0.274758 -0.078480 0.118805
0.247372 0.088729 -0.208249
0.023833 -0.300447 -0.055805
0.098921 -0.296891 -0.112031
0.208890 -0.224253 -0.208667
-0.251570 0.031370 0.191780
-0.020914 0.405883 0.128204
-0.185152 0.174394 0.037275
-0.078366 0.033529 0.267668
-0.015086 -0.248095 -0.246730
0.205070 -0.145529 0.159859
-0.108693 -0.404593 -0.076369
-0.193471 -0.137443 0.221731
-0.164909 -0.352689 0.023557
0.253700 0.052637 -0.234918
0.232071 0.177052 -0.287042
-0.253887 -0.043664 0.004326
0.161878 -0.210436 -0.256599
0.286768 0.112870 -0.095088
-0.333956 -0.106618 0.280704
0.029289 0.229631 -0.167654
0.238868 -0.115769 0.192885
-0.012518 -0.049331 -0.265001
-0.171500 -0.172268 -0.174089
0.260070 0.298745 -0.048478
-0.179245 0.226690 -0.028652
-0.117520 -0.266961 -0.103956
0.054776 0.257254 -0.117780
0.184105 0.160025 -0.271608
0.187982 0.098153 -0.285719
-0.277404 -0.049717 0.310422
0.093391 -0.226915 0.061633
-0.091146 0.240844 -0.012045
0.332642 0.035486 -0.361676
0.051547 -0.095486 0.244768
-0.174408 -0.045350 0.254635
-0.070765 0.275628 -0.082620
0.309788 -0.063616 -0.335087
0.062751 -0.297403 -0.093733
-0.039395 -0.271826 -0.213778
-0.241402 -0.111753 -0.007483
0.029757 0.134671 0.222794
-0.289010 -0.170148 0.080650
-0.225183 -0.031777 -0.146715
-0.070585 -0.067153 0.291191
-0.017739 0.047388 0.277451
-0.194889 -0.081498 -0.152580
0.284521 0.031297 -0.136082
-0.223474 0.081622 0.147885
-0.006044 -0.119702 -0.268240
0.276050 0.073157 -0.275497
-0.076766 0.312498 0.152120
0.121874 0.370555 -0.006167
-0.186802 -0.098241 -0.139385
0.163321 -0.205626 0.016158
-0.207485 0.209981 0.140857
0.161367 -0.223588 -0.127198
0.145436 0.152935 -0.253701
-0.150191 -0.374851 0.082223
-0.259086 -0.047283 0.094283
0.259976 0.035270 -0.066402
0.110155 0.241749 -0.209513
-0.065763 -0.106988 -0.220188
-0.120837 -0.418494 0.023376
-0.160575 -0.326534 0.140426
0.045659 -0.098261 0.243085
-0.163379 -0.208902 -0.066509
-0.261735 -0.040690 -0.002857
0.218372 -0.109959 -0.197880
0.107086 -0.233761 -0.237402
0.057545 -0.291230 -0.167985
0.005741 -0.268380 -0.269682
-0.115759 0.101800 -0.242893
-0.237414 0.121188 -0.197843
0.263107 -0.043513 -0.069532
-0.155513 -0.255967 -0.041686
-0.073548 -0.256094 0.107712
-0.178400 0.091905 -0.235208
-0.234898 -0.101689 -0.024917
0.066662 -0.303484 0.038886
0.196158 0.386902 0.010034
0.281215 0.224605 -0.077460
-0.067879 0.299739 0.057209
-0.043692 -0.190391 -0.220844
-0.208750 0.198363 -0.022193
-0.231600 0.119413 -0.083837
0.192205 -0.176211 0.106387
0.093108 -0.221803 0.074624
-0.098181 -0.415496 -0.092320
0.167863 -0.149936 0.191238
0.214144 0.274606 -0.110740
-0.138585 0.242419 0.065424
-0.021574 0.386052 0.144728
-0.167173 -0.109517 -0.165703
0.277561 0.188682 -0.080214
0.134257 -0.163506 0.174426
0.129437 0.231287 -0.223721
-0.316335 -0.153940 0.167841
-0.145366 0.124429 -0.221436
0.294020 0.013965 -0.306860
0.094037 -0.194125 0.135968
0.253214 0.131954 -0.237743
0.225617 0.146165 0.032149
-0.076588 -0.385897 -0.137235
-0.033579 -0.378594 -0.202633
0.026965 0.085351 -0.256892
0.260828 -0.055046 -0.065482
0.214132 0.165563 -0.241788
-0.254524 0.096868 -0.054101
0.196224 -0.212255 -0.248572
0.053949 0.042495 -0.254468
-0.020376 -0.233418 0.136155
0.071990 0.044980 -0.251515
-0.067071 -0.188838 -0.195395
0.257286 0.099868 -0.239066
-0.078639 0.252607 0.002293
0.003257 0.366138 0.067584
-0.043163 -0.063103 0.262262
-0.222237 0.025579 -0.210312
0.184582 0.296899 -0.096683
0.209900 -0.139597 -0.103037
0.209506 -0.143145 -0.303376
-0.260675 0.011669 0.192631
-0.085919 -0.191333 -0.174079
0.201762 0.051061 0.199296
-0.229499 0.070556 0.168351
-0.020676 -0.120563 -0.253719
0.131688 -0.201357 0.104427
0.181786 -0.013573 0.221700
-0.000855 0.296678 0.160802
-0.014325 -0.176730 -0.255240
-0.068954 0.183249 -0.200205
-0.230174 0.028858 -0.209906
0.172064 -0.187113 -0.278919
0.257431 -0.069270 0.142892
-0.209423 0.123100 0.233004
-0.173682 -0.305711 0.025514
-0.231822 -0.190704 0.134902
0.244902 0.004760 -0.220739
-0.221791 -0.204044 -0.060024
0.158834 0.273133 0.029907
0.123813 0.300895 -0.070918
-0.236626 -0.159671 -0.038760
0.174796 -0.198230 0.108131
0.161687 -0.233034 -0.131307
-0.241776 0.074811 0.101679
-0.043206 0.257463 -0.109736
-0.223729 0.082089 0.141616
-0.158690 0.227660 -0.042962
-0.150007 0.101224 0.306943
-0.098478 -0.039798 -0.265900
0.201909 0.245355 -0.010442
-0.204353 0.144066 0.277949
-0.057779 -0.454879 -0.150327
-0.010189 0.293393 -0.111544
-0.257311 -0.094201 0.048633
-0.101362 -0.310570 0.081775
-0.271178 -0.169738 0.036225
0.180832 0.098690 0.147660
-0.098334 0.255181 -0.072643
-0.257733 -0.052938 0.083540
-0.260941 0.036330 0.243367
-0.143276 -0.164640 0.258060
0.299005 0.096256 -0.328217
0.256713 0.109839 0.054718
0.142722 0.417204 0.035140
0.172457 0.221297 0.036256
0.118894 -0.307729 -0.096491
-0.097419 -0.090230 0.298379
0.149187 0.211611 -0.240331
-0.194054 0.159969 0.283045
-0.089046 0.092642 -0.248846
0.174349 0.215102 0.116953
-0.269048 0.022504 0.357257
0.263405 -0.008575 -0.145329
-0.257005 0.029899 0.212992
-0.171283 0.179226 0.241306
0.191773 0.029611 -0.296280
-0.133363 -0.154031 0.270136
-0.096104 0.266421 0.172135
-0.181285 -0.268526 0.158518
-0.195524 -0.195972 -0.101837
0.106498 -0.040629 0.246404
0.102141 -0.292771 -0.123934
0.218219 0.052256 -0.306357
-0.184681 0.159011 0.159465
-0.205387 -0.114920 -0.097809
0.177434 -0.249048 -0.162692
-0.120612 0.245121 -0.061630
0.137600 0.304226 0.047837
-0.098552 0.240409 -0.024361
0.194427 -0.214869 -0.246192
-0.284288 -0.022884 0.337134
0.095508 0.247762 0.181374
0.191051 -0.250554 -0.184165
0.006174 0.121969 -0.263786
-0.239747 -0.148569 0.216806
0.288616 0.051594 -0.134540
-0.012840 0.348958 0.062311
-0.245965 0.012467 0.088487
0.004252 -0.049031 -0.280000
-0.270593 0.028066 -0.109988
-0.180686 -0.274175 0.154222
0.030743 -0.233552 0.175728
0.075778 0.020862 0.248524
0.154492 0.234725 0.055943
0.017905 0.246051 -0.153852
-0.220449 0.165733 -0.031957
-0.202270 0.182745 0.136900
-0.010620 0.247004 0.232919
0.044528 0.022375 0.263477
-0.292448 -0.120607 0.131666
0.007174 -0.054108 0.245664
-0.174386 0.232496 0.098193
0.270538 0.072964 0.050678
0.067424 -0.313391 0.016531
-0.048695 -0.179624 -0.217332
-0.166682 -0.028315 -0.222529
-0.092346 -0.073349 -0.245250
-0.240517 -0.195118 0.023568
0.061983 -0.236957 -0.221156
-0.234765 -0.048731 0.277069
-0.312594 -0.050807 0.281229
-0.306882 -0.124928 0.169365
-0.325878 -0.112631 0.240467
0.244989 -0.059934 -0.021674
0.207583 0.316208 -0.067649
-0.097539 -0.448482 -0.084969
0.144183 -0.205885 -0.261675
-0.090629 -0.257203 0.123913
0.074752 -0.061238 -0.262323
-0.174485 0.169578 0.177197
-0.071324 0.023858 -0.258748
0.083480 0.078173 0.258133
0.116216 -0.285164 -0.060888
-0.113067 0.130255 -0.226694
0.104108 -0.111461 0.237921
-0.048881 0.273770 0.005366
0.189025 -0.162584 -0.096081
0.016023 0.225489 -0.161673
0.051365 0.358681 0.117889
0.003652 -0.313868 -0.194709
0.064432 0.322700 -0.019902
-0.110568 0.206897 0.284257
-0.269194 -0.129235 0.215665
0.228121 0.174206 -0.201823
0.089469 0.156497 -0.225641
-0.029887 0.237330 0.258699
-0.158966 -0.236293 -0.047782
-0.005760 0.305662 0.009395
0.199463 0.261970 -0.007797
0.161050 0.412064 0.032604
0.273496 -0.040367 -0.338556
0.221953 -0.194596 -0.263981
-0.124559 0.090382 0.282717
0.245296 0.158798 -0.211975
0.006897 -0.302341 -0.050920
0.293756 0.067258 -0.103153
0.019188 -0.046828 0.246251
0.021516 0.236392 0.258938
-0.145483 0.209215 0.230220
0.123353 0.254340 0.083057
-0.153826 0.256649 0.148853
0.173428 0.394702 0.012552
0.230813 0.199258 -0.180718
-0.278772 -0.183734 0.045756
0.267652 -0.049066 -0.074985
-0.040195 -0.061903 -0.244033
-0.083777 0.155447 -0.196695
-0.289286 0.011372 0.303672
0.239759 0.141316 -0.237595
-0.254476 0.099279 -0.154105
0.252436 0.030528 -0.015530
0.250870 0.158354 -0.152698
0.296918 0.017041 -0.106602
0.214647 0.233602 -0.023011
-0.119474 0.294054 0.103095
0.205463 0.186937 0.120523
-0.338227 -0.065174 0.351628
-0.078900 -0.453404 -0.116292
-0.289650 -0.068664 0.178956
0.051798 -0.270104 0.092658
-0.090709 0.028002 0.266391
0.046353 0.327920 -0.003157
-0.278059 -0.003609 0.345883
0.120621 0.332550 -0.040245
0.093765 -0.250637 0.011998
0.035807 -0.217786 0.193868
-0.142252 -0.393950 -0.013532
0.234449 -0.123440 0.121337
-0.182492 0.244024 0.120664
0.252206 0.080740 -0.172983
-0.197591 0.134661 0.201786
-0.243204 -0.040884 0.288311
0.123075 0.347642 0.062818
0.123685 0.240570 0.175359
-0.139346 0.232751 0.157199
0.182489 -0.249151 -0.210180
0.274720 0.050544 0.062631
-0.132100 0.286188 0.108538
-0.009318 0.281976 -0.121477
0.101467 0.051918 0.250590
-0.192369 0.058041 0.313348
0.218751 0.038666 0.175290
-0.210149 -0.082105 0.245966
-0.090916 0.264944 0.194497
0.129933 -0.281142 -0.085896
-0.152717 -0.232110 0.229998
0.088125 -0.225859 -0.232172
-0.220592 -0.045060 -0.156688
-0.185459 0.185419 0.056280
-0.018695 0.419878 0.146590
0.035100 0.247041 -0.163862
0.162557 -0.288737 -0.142815
0.117298 0.347598 0.067249
-0.104227 -0.337851 -0.103479
0.055486 -0.289773 0.071926
-0.057862 -0.426737 -0.156955
0.186230 0.273872 -0.115597
-0.267867 -0.094439 0.270112
0.077715 0.001977 -0.259460
0.231100 0.312778 -0.055766
-0.152310 -0.140203 -0.197315
-0.266719 -0.050872 -0.066432
-0.109751 -0.234877 0.171765
0.032105 -0.155573 0.225962
-0.088451 -0.371945 0.000013
0.255832 -0.076740 -0.057357
-0.029175 0.308425 0.031663
0.011348 -0.262642 0.115659
-0.219997 -0.204734 0.088236
-0.239747 -0.174072 0.188295
-0.281822 0.058582 0.077588
0.188126 0.296379 -0.098252
-0.199209 0.152662 -0.137463
-0.070605 -0.456244 -0.103405
0.225353 0.149572 0.038993
-0.107672 -0.046779 -0.251304
-0.129624 0.196956 -0.103252
0.085733 -0.272870 -0.190010
-0.207038 0.143251 0.029322
-0.168342 0.080996 0.308876
0.034758 0.340984 0.128875
0.019064 -0.138049 0.226187
-0.185138 0.162278 0.247225
-0.183704 0.126026 0.354371
0.224226 0.190412 -0.031625
0.189861 0.054662 -0.292779
-0.158151 -0.136400 0.244856
0.129594 -0.261198 -0.079212
-0.115591 0.018904 -0.242332
-0.098478 0.111085 0.275796
0.220680 0.171676 -0.264793
-0.213668 -0.113820 0.230870
-0.195677 -0.154462 -0.121505
-0.137866 0.107035 -0.227970
-0.172010 -0.164058 -0.169645
-0.129452 -0.418719 0.021439
0.144674 -0.225035 -0.244298
0.128299 -0.221774 -0.017374
-0.052703 -0.365950 -0.178121
-0.201299 0.167885 -0.123165
0.153298 -0.205081 0.081312
-0.259007 0.069714 0.039448
0.265321 0.112318 -0.257133
0.073659 0.004068 -0.258909
0.005830 -0.076614 -0.281602
-0.021372 0.292123 0.005486
0.116284 0.246981 -0.187219
-0.045437 0.069670 0.259933
-0.018771 0.233835 -0.136919
0.185727 0.384344 0.023864
0.079408 0.258008 -0.103623
0.135469 0.126900 0.170538
-0.201737 0.158769 -0.086480
0.040319 0.006147 -0.290197
0.188310 -0.210308 -0.173805
0.007935 0.050961 0.281596
0.011085 0.247729 0.233727
-0.103553 0.201559 -0.137012
0.253512 -0.110509 0.158938
-0.232144 0.071698 0.192330
0.081079 -0.285877 -0.140904
-0.237492 0.143987 0.085492
0.044994 -0.014546 -0.283690
-0.252047 -0.168696 0.129544
-0.016980 0.146892 -0.247988
0.125320 -0.289864 -0.138646
0.182989 0.038749 -0.291456
0.183559 0.059931 0.217198
-0.216015 0.137406 -0.163737
-0.126680 -0.051186 -0.224853
-0.106184 -0.222163 -0.137733
-0.274939 -0.177736 0.102083
-0.300311 -0.149835 0.179385
-0.249465 -0.010408 0.087306
0.271605 0.186622 -0.118982
-0.314654 -0.029763 0.361435
-0.248028 -0.062933 0.029494
0.058005 -0.245122 0.101033
-0.091686 0.110574 0.272041
0.126231 -0.171564 0.164384
-0.209120 0.069927 0.336039
0.095318 0.257219 -0.108612
-0.113879 -0.377755 0.043077
-0.025173 0.337352 0.060393
-0.111387 -0.111209 0.290058
-0.244085 0.074098 0.258443
-0.217590 0.096540 0.180550
-0.104778 0.246223 -0.033997
0.017831 -0.302568 -0.071277
-0.198062 -0.281754 0.122074
0.014389 -0.252778 -0.256352
0.122095 -0.139275 0.201312
0.253780 -0.135993 -0.265145
0.120264 0.107415 -0.252643
-0.193849 -0.035777 -0.215427
0.215365 -0.140812 0.080968
-0.198912 0.148351 -0.148734
-0.170307 0.114492 0.333287
-0.313626 -0.116385 0.198538
-0.027524 -0.392955 -0.136721
0.039713 0.268094 0.159591
-0.015803 -0.351112 -0.230747
0.150841 -0.236809 -0.225074
0.045794 -0.066588 -0.285480
-0.176458 0.192619 -0.004892
-0.234957 -0.184162 0.114186
-0.003705 0.265411 -0.084525
0.022562 0.191265 0.231786
-0.247937 -0.188826 -0.028276
0.051014 -0.197690 0.182344
0.246336 0.281843 -0.042035
0.180564 0.375285 -0.010637
-0.167568 -0.279511 -0.002331
-0.263690 -0.016693 0.322452
-0.099634 -0.069094 0.290295
-0.080264 -0.445257 -0.076065
-0.255823 -0.008895 0.133190
-0.296277 -0.105908 0.258467
0.017955 0.360498 0.050223
-0.133009 -0.159197 -0.167634
0.113084 0.436417 0.088892
-0.204802 0.151090 -0.074061
-0.159709 0.199792 0.159572
0.036533 0.112152 -0.227287
-0.082439 0.351226 0.151059
-0.015924 -0.003713 0.291401
-0.136502 0.073879 -0.235907
0.230510 0.208182 -0.173006
-0.156864 0.258776 0.106651
0.105450 -0.229748 -0.237886
0.259599 -0.004127 -0.064448
0.154588 0.226752 -0.218585
0.307201 -0.034773 -0.344880
-0.076825 0.127751 -0.214125
0.151481 -0.209449 0.031091
-0.095223 0.118366 0.277043
0.036966 0.359320 0.035319
0.250799 0.038229 -0.041220
0.044683 -0.298085 0.066048
0.052217 0.300130 -0.036800
-0.221327 0.156030 0.075386
0.198199 0.244552 -0.006914
0.009270 -0.255411 0.127297
-0.032401 0.278670 0.188218
0.222564 -0.130675 -0.099628
0.084616 0.119624 -0.234612
0.294616 -0.087228 -0.316434
0.292409 -0.036599 -0.309116
-0.040315 -0.337173 -0.049562
-0.235747 0.171779 0.130667
0.029829 0.065019 -0.274797
-0.166423 -0.305700 0.007791
-0.171196 0.039111 -0.249133
0.055887 0.458076 0.134732
0.224070 0.160186 0.061195
-0.086112 -0.059726 0.298150
-0.130362 -0.413469 -0.032156
-0.164887 0.191862 0.159398
-0.320717 -0.102963 0.236058
0.012839 -0.254486 -0.273718
-0.128855 0.203803 -0.134805
-0.138155 0.229869 -0.021674
-0.173330 -0.313888 0.123420
-0.088423 0.178806 -0.186456
-0.048805 0.388844 0.135201
0.088061 -0.019104 -0.262211
0.190424 -0.170517 0.132873
0.171068 -0.267750 -0.154622
-0.036951 -0.263475 -0.217889
-0.220777 0.020400 -0.206950
0.281759 0.110211 -0.136095
-0.224493 0.126058 0.044215
-0.270935 -0.126067 0.065615
0.061193 -0.139537 0.242900
0.294852 0.041037 -0.104681
-0.252710 -0.051892 0.287992
-0.135767 -0.132701 -0.224782
0.013096 -0.292468 0.021930
0.245687 -0.011035 0.179382
0.027946 0.376175 0.058699
-0.223740 0.153993 -0.105939
0.139445 0.382490 -0.004657
-0.143429 -0.385475 0.083635
-0.038795 0.288971 -0.091097
-0.072213 -0.211300 -0.183863
0.281124 0.198690 -0.081412
0.147114 -0.115894 -0.277463
0.223189 0.035547 0.164582
0.052554 0.453438 0.117230
0.012086 -0.111301 -0.287190
0.200671 -0.155530 0.127716
-0.256087 -0.027228 -0.064190
0.004897 0.263901 -0.064318
-0.107778 0.179244 0.324662
0.201071 0.021752 -0.301311
0.243454 0.257250 -0.096421
-0.159763 -0.004818 0.264006
-0.285954 -0.085250 0.147504
0.202935 0.178795 0.035785
0.071162 0.253507 -0.115446
0.169126 -0.189895 -0.117825
0.053992 -0.237051 0.120161
-0.089653 -0.189343 0.192266
-0.077319 -0.280650 0.080980
-0.223280 -0.012322 0.291721
-0.133375 0.223120 0.231164
-0.109896 -0.445244 -0.029594
0.021659 -0.217304 -0.285539
-0.092780 0.347071 0.152119
-0.012414 -0.103701 -0.262866
0.004152 0.332611 0.031708
-0.123814 0.252069 -0.056071
0.247935 0.020657 -0.225120
-0.239248 0.118001 0.060061
0.240361 0.154787 -0.281359
0.111377 0.095066 0.226239
0.258158 0.082705 0.031173
0.232788 -0.096929 -0.224981
0.301109 0.083374 -0.321091
-0.094330 0.201575 -0.146701
-0.190473 -0.281086 0.059383
-0.043789 -0.428363 -0.141047
-0.090184 -0.436262 -0.049965
0.108504 0.187898 -0.225649
-0.133014 -0.346029 0.106407
-0.103809 0.046661 -0.252929
-0.074201 -0.174562 -0.191590
-0.050362 0.370594 0.117666
-0.271866 -0.201333 0.018256
0.061396 -0.194848 0.166891
-0.111532 -0.121992 0.291651
-0.015339 0.236935 -0.137655
-0.248460 0.089068 0.042749
-0.214693 0.167241 -0.116806
0.191443 0.214693 -0.166571
0.285675 0.193034 -0.085580
-0.288680 -0.035022 0.222266
-0.085847 -0.396633 -0.119050
0.251703 0.133254 -0.226043
-0.108351 -0.141178 -0.187274
-0.111583 -0.189890 0.219860
-0.266218 -0.020643 0.159906
0.256773 -0.027122 0.010078
0.025391 -0.288605 0.066159
0.006784 -0.240483 0.146832
-0.117897 0.293232 0.151026
-0.037668 -0.113108 -0.239073
0.004509 0.018869 -0.278008
0.289309 0.169159 -0.091440
-0.064461 0.194304 -0.167119
-0.097939 -0.228599 -0.146264
-0.008777 -0.298368 -0.015004
-0.242804 -0.009163 -0.137604
-0.117588 -0.295549 -0.093561
-0.000411 -0.006398 0.273411
0.021444 0.262028 -0.082596
-0.113324 -0.296478 -0.100540
0.237497 0.284512 -0.077606
-0.177804 -0.036773 -0.218276
0.142945 -0.213814 -0.059250
0.272230 0.076644 0.056319
-0.202534 -0.146318 0.215107
0.018197 -0.116095 -0.293444
-0.241047 -0.096006 -0.004684
-0.021343 0.262245 -0.047002
-0.009426 -0.275370 -0.250537
-0.081566 0.286463 0.055064
0.181211 0.219531 -0.255572
-0.109406 -0.146951 -0.180878
-0.255652 0.089167 -0.029207
0.263885 0.034638 0.071639
-0.280482 -0.113767 0.242353
0.132928 0.158693 -0.246167
0.039181 -0.087158 -0.315547
0.203929 0.183633 -0.248848
-0.221085 0.134423 -0.142547
-0.264054 -0.190302 0.060380
0.116456 -0.278632 -0.158205
0.247580 0.099871 -0.184205
0.196816 0.361177 -0.020871
0.234183 0.215579 -0.141179
-0.251385 0.103029 -0.191151
0.076175 -0.161399 -0.247765
-0.193809 0.184019 -0.115514
-0.186347 0.240334 0.121422
-0.197819 0.182977 0.138059
-0.070212 0.236588 0.245034
-0.264195 0.080502 -0.166712
-0.172058 0.137923 0.352431
-0.168124 0.245412 0.147284
0.216967 0.174462 0.079040
-0.102339 0.255655 0.184507
0.242191 -0.163522 -0.035033
-0.227299 -0.014873 -0.160436
-0.268352 -0.073227 0.102776
-0.030719 -0.214949 -0.232147
0.252216 0.075955 -0.227767
-0.088002 -0.153671 -0.187224
0.019031 0.329440 0.017166
-0.254316 0.055603 0.015207
-0.029059 -0.327825 -0.056042
0.290548 -0.060464 -0.336599
0.135353 0.211648 -0.232904
-0.199210 0.149538 -0.143945
-0.024457 -0.042447 0.263901
-0.167462 0.188160 0.258109
0.013203 -0.021283 -0.287861
-0.137298 0.214616 -0.000255
-0.044420 0.226146 0.288331
0.293542 0.072547 -0.102788
-0.218980 0.056651 0.335486
-0.238381 0.044132 -0.217587
0.126373 0.349940 -0.027279
-0.164856 0.184501 0.172029
0.121047 0.367279 -0.008661
0.153315 0.125469 0.155515
0.257435 0.270401 -0.052153
0.241102 -0.099841 0.053459
-0.138308 -0.380716 -0.026169
-0.021508 -0.356199 -0.222886
-0.234729 0.126904 -0.193506
-0.139460 0.051376 0.275232
-0.226045 -0.113339 -0.049655
-0.178306 -0.277455 0.155136
0.256538 -0.022985 -0.057855
-0.225770 -0.193718 0.040921
-0.254696 0.058866 -0.177069
-0.040401 0.006679 0.294909
-0.213992 -0.208542 0.066622
-0.222286 0.163386 -0.114818
