0.133652 0.203398 0.235841
0.145880 0.134759 0.215357
-0.063588 -0.061443 0.207922
-0.277467 0.296512 -0.194291
-0.120315 0.106523 0.310966
-0.327374 0.382398 -0.099773
0.089954 0.319661 -0.197305
-0.405044 -0.048889 0.036631
-0.314625 0.358232 -0.068328
0.159037 -0.004011 0.207132
-0.033633 0.488342 -0.255294
0.084538 -0.043167 -0.142747
0.205795 0.129453 -0.146916
0.001541 0.073594 -0.155505
-0.037497 0.386815 -0.286147
0.161609 0.022876 0.209589
0.055114 -0.473400 -0.044091
-0.191340 0.276760 -0.233427
-0.090465 -0.120538 0.039091
0.072094 -0.166725 -0.076631
-0.211992 -0.070121 -0.074189
0.133489 0.424524 0.175569
0.261429 -0.111390 -0.056642
0.115518 -0.409364 -0.015626
0.205498 -0.069988 0.135857
0.120719 0.245946 0.242410
0.110759 -0.405461 0.007114
-0.123121 -0.033040 0.240674
-0.103068 0.074566 0.293044
0.151808 0.465466 -0.018099
-0.307118 0.206969 -0.100148
-0.059619 -0.133532 0.156857
-0.118039 -0.088560 -0.215692
0.011669 0.118690 -0.175640
0.187192 0.046033 -0.106554
-0.121700 0.172088 -0.326965
-0.077841 -0.032907 -0.145493
-0.152193 0.338193 -0.278236
-0.091239 -0.046835 -0.036048
-0.352036 0.050277 0.123625
0.014230 0.460351 -0.139589
-0.009150 0.008021 -0.177210
-0.104348 -0.065952 0.012159
-0.199536 0.392226 -0.096330
-0.035950 0.001752 0.275745
-0.241218 0.256642 0.276060
-0.091812 0.484247 -0.298155
-0.217937 0.326351 -0.266099
0.068892 -0.221031 0.206590
0.158470 0.405773 -0.112679
-0.265706 0.332820 0.193336
-0.187736 0.303092 -0.253784
-0.032972 0.087689 0.301029
0.261668 0.316817 -0.084756
0.203211 -0.459386 0.026933
0.208670 -0.002437 -0.066195
0.017451 -0.065146 0.179087
0.032786 -0.340317 -0.108512
-0.034742 0.121823 -0.199799
-0.192316 0.468637 -0.355297
0.016104 0.450278 -0.132762
0.239368 -0.155294 0.090820
0.135128 0.092320 -0.166928
-0.329516 0.375525 -0.218473
0.234021 0.185762 0.000736
-0.210864 0.083068 0.268829
0.063849 0.132656 -0.230713
-0.018718 0.427021 -0.041312
-0.094471 0.277147 0.419761
0.157340 0.425528 0.151765
0.063976 0.378936 -0.156032
-0.193267 -0.056082 0.074982
-0.302080 -0.038391 -0.102753
0.004122 -0.162880 -0.021545
-0.239056 -0.053135 0.011491
0.272072 0.423532 0.021083
0.167183 -0.371788 0.105281
-0.189636 0.104342 -0.168028
-0.342576 0.320555 0.245741
0.102606 0.201460 0.263095
-0.027412 -0.160398 0.196121
-0.128767 0.414951 -0.366706
0.222269 -0.362851 0.046177
-0.387069 0.043521 -0.039191
0.233222 -0.303061 0.052217
-0.034292 -0.105380 0.214746
0.236966 -0.076586 -0.082860
0.094599 0.291539 -0.208919
-0.392915 0.340791 -0.015817
-0.104413 -0.060163 -0.202486
-0.426630 0.049380 0.048262
-0.330310 0.326960 -0.184230
-0.189693 -0.060406 -0.063391
0.034952 -0.292222 -0.100039
0.079181 -0.016690 -0.153457
-0.054481 0.011384 0.311376
-0.013899 -0.055660 -0.053629
0.051052 -0.038106 0.231505
-0.195782 0.341851 0.323496
0.010329 0.103991 0.346272
-0.041089 -0.077147 0.007444
0.308384 0.245828 0.040630
-0.129510 0.250052 -0.336900
-0.341201 0.101789 0.003464
-0.329792 0.249026 0.243163
0.056631 0.287560 -0.244004
-0.135937 0.418007 -0.161678
0.115689 0.353753 -0.150950
-0.109313 0.199705 0.405245
-0.075081 -0.097625 -0.251610
-0.114214 0.346946 0.361754
0.000657 0.482676 -0.230014
-0.321504 0.334713 0.095434
0.042056 -0.376010 -0.102800
-0.230779 0.344811 0.164593
0.002054 -0.377305 -0.055144
-0.140043 0.354547 0.238500
-0.092303 -0.036368 0.228006
-0.209132 -0.047652 0.061328
0.153939 0.520607 -0.085647
-0.309536 0.224153 -0.108065
-0.222907 0.390236 -0.132820
0.096080 0.376036 0.244621
-0.201929 0.136477 -0.175547
0.193611 0.210987 -0.141412
0.243690 -0.287621 0.008039
0.212782 0.090095 0.151184
0.210602 0.054701 -0.129969
-0.387049 0.078496 0.098526
-0.234692 0.336392 0.265388
-0.161434 -0.003434 -0.272499
-0.210173 -0.087085 -0.168916
0.285871 0.321859 0.077024
-0.170012 0.362420 0.139677
-0.204719 0.376439 -0.016660
0.226221 0.387403 0.105282
0.046915 -0.391579 -0.103583
0.182682 -0.189521 0.160299
-0.186353 0.035515 -0.121027
-0.160828 0.344409 0.346034
0.101467 -0.165013 0.204988
-0.218110 0.003709 -0.127994
0.126642 0.516678 -0.111864
-0.037638 0.092200 0.348924
-0.219963 0.141078 0.273699
0.084896 0.508385 -0.107689
0.209587 -0.149517 0.133970
-0.094710 0.299360 0.421587
0.020132 -0.374802 -0.091528
-0.236364 -0.087477 -0.113606
-0.195371 -0.154457 0.038011
-0.340402 0.208895 0.222591
-0.068650 0.373116 0.228649
-0.156811 0.464439 -0.271078
-0.329125 -0.031369 -0.045253
0.070895 -0.473993 -0.062255
-0.384437 0.311955 0.208770
-0.420840 0.167476 0.136916
0.231889 0.476220 0.017000
-0.097852 0.456186 -0.322902
-0.121335 0.159353 0.372514
0.180198 -0.003547 0.179026
-0.194475 0.083069 -0.318571
-0.287599 0.326348 0.202984
0.198610 0.135184 -0.047491
-0.281345 0.039459 -0.006289
0.177620 0.411764 0.128380
0.186630 -0.026004 -0.113644
0.241174 -0.288418 -0.019705
-0.164968 -0.005237 -0.252642
-0.100348 0.345276 0.351243
0.072787 0.267671 0.285617
0.160835 0.050956 -0.105684
-0.099231 0.037158 -0.220799
0.147291 -0.456626 -0.066770
0.236484 -0.244985 -0.052475
0.198909 -0.032006 -0.106221
0.263187 0.200624 0.036741
-0.013078 -0.127295 0.216301
-0.082624 -0.101095 -0.243481
-0.365075 -0.092582 0.048887
-0.110261 0.232022 -0.336013
-0.109313 0.242615 0.383393
0.187145 0.407629 -0.083779
-0.202256 0.009517 -0.116045
-0.125040 -0.085156 0.147345
-0.224728 0.319312 0.348710
-0.115709 0.259620 0.368451
-0.028654 0.123316 -0.218359
0.209395 0.179603 -0.023247
0.287597 0.356869 -0.052281
0.150427 -0.292845 -0.094445
-0.337022 0.212440 0.225934
0.042784 -0.001437 0.257771
-0.108039 0.306060 -0.321116
-0.211297 -0.037108 0.066280
-0.268984 0.334154 0.179454
-0.419544 0.232774 0.016259
-0.261557 0.136313 0.255725
-0.080195 -0.034991 -0.159424
-0.166911 0.137534 -0.281233
0.197268 -0.290637 0.112354
-0.127799 0.012335 -0.215688
0.101031 0.214513 -0.222951
-0.125034 0.130981 -0.350851
-0.078936 0.015516 0.320741
-0.080276 0.042723 -0.227537
-0.266017 0.345418 -0.279826
-0.190473 0.058983 -0.301899
0.204964 0.046329 -0.035978
0.221846 -0.421767 0.014524
-0.208514 0.045271 0.127088
-0.348861 -0.149164 0.021897
-0.300295 -0.141846 0.047945
-0.095302 -0.045445 -0.041016
-0.227799 0.433469 -0.335128
-0.152525 0.029296 -0.244638
-0.041466 -0.160877 0.178636
-0.096839 0.409201 -0.043691
0.152024 0.232183 -0.184103
0.036078 0.492321 -0.121114
-0.254543 0.367025 -0.035064
0.134252 0.440621 -0.146236
0.245622 0.449199 0.052225
0.094318 -0.074292 -0.091906
-0.050190 0.090085 0.346447
-0.270226 0.238722 0.259700
-0.099457 0.326380 0.413451
-0.020219 0.382800 0.255575
-0.206525 0.346292 -0.251889
0.143858 -0.424642 0.092783
-0.013084 -0.047832 -0.109917
0.106208 0.455810 -0.029858
-0.168159 -0.095759 0.026384
-0.280203 -0.015167 -0.088392
0.236421 0.213054 0.104720
0.033104 -0.364001 -0.101227
-0.056787 0.112508 -0.318110
-0.202860 0.333705 -0.251871
-0.003894 -0.365049 -0.064614
-0.277259 0.356385 0.001701
0.076059 -0.317365 -0.118020
-0.134339 0.274191 -0.332443
0.290358 0.221393 0.005219
0.199026 0.149355 0.005390
0.183100 0.289075 -0.118651
0.190813 0.470912 0.007888
0.220276 0.025457 0.132829
-0.222799 -0.007517 0.036644
0.120512 -0.407656 0.102795
-0.068406 -0.008974 0.311956
0.044296 0.057313 -0.166332
0.038583 -0.038878 -0.168572
0.117014 0.262444 -0.201728
-0.205300 0.013030 -0.207571
0.250692 -0.247074 -0.018951
0.020357 0.422911 0.059196
0.147690 0.172519 -0.190478
0.210554 0.461548 0.092181
-0.274840 -0.008543 0.083579
-0.097610 0.473436 -0.223585
0.152670 -0.427179 -0.103906
0.203824 -0.310211 -0.074560
-0.229714 0.348527 0.140884
-0.286856 0.358705 -0.036806
-0.098960 -0.063161 -0.341488
0.282059 0.284598 0.097970
-0.030446 -0.038064 -0.097201
-0.406286 0.309383 0.134574
0.238532 -0.248680 -0.046956
-0.288089 0.177862 -0.103666
0.229575 -0.373280 0.015410
-0.325832 -0.005833 -0.038437
0.170367 0.144567 0.184442
-0.087465 -0.082942 0.176319
0.085937 -0.049749 0.229669
0.227396 0.490098 -0.005491
-0.069433 0.335941 0.410586
-0.021832 0.238265 0.441721
-0.064948 -0.048618 0.211434
0.161146 -0.420414 0.018966
-0.164764 0.161438 -0.266069
0.018357 -0.319008 -0.098410
-0.156760 0.359889 -0.353733
-0.107877 0.009661 -0.203983
-0.269134 0.045777 -0.022429
0.142453 -0.037320 0.216761
-0.118577 -0.043839 -0.056107
0.121020 0.417812 -0.138343
0.243656 0.214140 0.075032
-0.311939 0.038010 -0.027516
0.178850 0.522192 -0.054789
0.280936 0.270602 0.097348
0.043424 -0.295484 0.131982
-0.373936 0.327956 0.026061
0.013230 -0.130926 -0.063411
0.150272 -0.032039 -0.118219
0.129910 -0.125564 0.202273
0.058422 0.044008 0.275119
-0.057400 0.421109 -0.066486
0.190682 -0.198887 0.149713
0.110992 -0.413317 -0.014980
-0.137446 -0.119092 0.040933
0.049433 0.204365 0.378159
-0.016904 -0.042686 0.274101
-0.238352 -0.139587 -0.129722
-0.122509 0.178509 0.379056
-0.097197 0.367937 -0.326696
0.276360 0.426550 -0.015524
0.108896 0.160866 0.263632
0.016319 0.107936 0.253262
-0.193723 0.010922 0.183644
-0.431830 0.021023 0.030598
0.226194 0.228093 0.112967
-0.005378 0.430197 -0.038608
0.007444 0.278130 0.381505
0.124450 -0.400881 -0.026718
0.051206 0.396818 -0.133817
0.224416 -0.020918 0.117606
-0.291691 -0.028352 -0.106263
-0.086143 0.127652 -0.319441
-0.291962 0.327274 -0.218109
0.020385 0.376789 -0.249997
-0.210243 0.270977 -0.205854
-0.130053 0.379052 0.093117
0.211894 0.484274 0.016708
-0.132439 0.405410 -0.073457
-0.021211 -0.059898 0.214505
-0.247661 0.444281 -0.216446
0.296652 0.341595 0.055708
0.060657 0.139862 -0.237740
0.159390 -0.398540 0.097006
0.151005 0.461465 0.002023
-0.173232 -0.057846 -0.262505
0.228112 0.121960 -0.071992
0.030036 -0.019142 0.240998
-0.171794 0.342321 0.272839
-0.119297 -0.118739 0.102747
-0.275380 0.276402 -0.165984
-0.189932 0.187563 -0.210713
0.162674 -0.284468 -0.073126
-0.114873 0.233774 0.366104
0.189992 -0.429333 -0.084191
-0.313445 0.125871 -0.015604
0.140089 0.059531 0.239268
0.317262 0.348183 0.028691
-0.181489 0.039569 -0.347729
-0.004063 -0.033122 0.239987
-0.311008 0.366417 -0.255319
0.297958 0.383114 -0.008762
-0.102351 0.433511 -0.210126
-0.298099 0.400903 -0.140776
0.108175 -0.297438 -0.102087
0.321770 0.335899 0.031369
0.109498 -0.439039 0.023498
0.150524 0.095732 0.222433
-0.246473 -0.145300 -0.133078
0.120877 -0.021972 0.238181
0.243720 -0.032463 0.072708
0.251381 -0.147870 -0.071088
0.027558 -0.413017 -0.090020
-0.241681 -0.135172 -0.191607
0.243233 0.147479 -0.111173
-0.344473 -0.151709 0.022229
-0.242745 0.297477 0.316547
-0.179908 0.102148 -0.174643
0.270310 -0.154422 0.013773
-0.429730 0.290461 0.105863
-0.397411 0.155824 -0.002685
0.071719 0.337502 -0.220026
-0.068865 -0.002497 -0.266687
-0.385865 0.296298 0.211493
-0.379330 0.338744 -0.027804
-0.280507 0.318133 -0.213392
-0.161384 -0.006853 0.243509
-0.140229 0.341529 0.323103
0.200941 0.336280 0.120215
0.217457 0.511836 -0.018436
0.222829 -0.177250 -0.076625
-0.312779 0.319653 0.275283
-0.231591 -0.057580 -0.222688
-0.055707 -0.120126 0.196648
0.242736 0.469960 -0.029513
0.087227 0.510172 -0.121542
-0.345143 -0.099683 0.049199
0.029234 0.119693 0.357086
0.076649 0.407581 0.231629
0.143413 0.040175 -0.132553
-0.408663 -0.059144 -0.020106
-0.008594 0.277780 0.400872
-0.269797 0.261407 -0.137636
0.048462 -0.073947 -0.131762
0.148028 -0.035823 -0.115834
-0.165654 0.224273 -0.320358
0.179451 0.444558 -0.097306
0.138769 0.067128 0.239616
0.049705 0.267423 0.373489
0.250333 -0.083364 0.064009
-0.270645 0.294740 -0.194770
-0.388298 0.368800 -0.073580
0.111364 0.368514 -0.117933
-0.061213 -0.118536 0.079946
-0.405400 0.291646 -0.060804
0.057495 0.270051 0.304292
0.156809 -0.062272 -0.109147
-0.230187 0.366047 0.017407
0.195033 -0.455467 -0.023495
-0.193489 0.374738 -0.333077
-0.224192 -0.135578 -0.186473
0.225536 0.013387 -0.076202
0.118829 -0.013429 0.243578
-0.217186 -0.148092 -0.013100
0.252704 -0.085935 -0.020615
-0.175844 0.078523 0.292675
-0.094463 0.385094 0.106664
-0.259955 -0.125144 0.019585
0.293573 0.388893 -0.016702
-0.193462 0.406236 -0.189870
-0.165479 0.094842 -0.254218
0.204123 -0.172356 -0.083474
0.170553 0.223781 -0.133720
0.185977 0.346959 0.120786
-0.066551 0.339928 0.404264
0.194461 -0.415975 -0.085306
-0.361526 0.246059 -0.002854
0.220991 0.501421 -0.004886
0.211080 0.395832 -0.062605
-0.314208 0.288416 -0.076524
-0.302383 0.043701 -0.024112
-0.086137 0.197168 -0.322503
-0.224889 -0.115225 -0.158488
-0.000234 0.463106 -0.244035
0.092043 0.272893 0.267358
-0.114821 0.253392 0.338349
-0.321754 -0.051303 -0.051044
-0.224761 0.369791 -0.314541
0.125292 0.399991 0.197339
-0.252171 0.237365 0.274057
-0.391915 0.003850 0.077680
0.002194 0.027235 0.252667
0.119038 0.384954 0.218708
-0.231152 0.050989 0.073168
-0.169207 0.196900 0.322507
-0.202343 0.252224 0.297921
0.140324 -0.253172 -0.062200
0.036822 0.503599 -0.153320
0.071423 -0.477277 0.003919
-0.010092 0.433587 -0.271492
-0.421157 0.081102 0.035466
0.217779 -0.148863 0.125102
-0.209871 0.394994 -0.136219
-0.420477 0.315485 0.020798
0.166192 0.168697 -0.040719
0.236532 0.448201 0.079390
0.231803 0.389783 0.057048
0.221785 0.379131 0.112628
0.265042 0.198248 0.014942
0.141210 0.016956 -0.137802
-0.021497 0.095219 -0.259314
-0.179623 0.264044 0.329327
-0.067276 0.401863 0.041338
-0.079590 -0.037231 -0.325164
0.029289 -0.141846 0.216235
-0.189501 0.216225 -0.278215
0.024909 -0.012472 0.242683
-0.214264 0.376897 -0.038174
0.039408 0.257421 0.378934
-0.109717 -0.018636 0.188536
-0.151366 0.097402 -0.235640
0.067640 0.133682 0.292816
0.074971 -0.334462 -0.119323
0.117978 -0.464944 -0.069948
0.069038 0.250636 0.342343
0.010643 0.360580 -0.262239
0.203417 0.377108 0.121095
-0.396257 0.278250 -0.035822
-0.104843 0.470777 -0.315822
0.089983 -0.273188 -0.095128
0.086932 0.145873 -0.229991
0.024285 0.394818 -0.234056
-0.051288 0.017402 -0.327843
0.022786 0.493710 -0.133444
-0.051933 0.223215 0.439041
0.113194 0.260766 0.249087
0.180617 -0.062811 0.167471
0.144431 -0.454470 0.028000
0.035887 0.113054 0.318745
-0.312756 0.285376 0.256304
0.093946 0.383854 0.246473
-0.281351 0.015001 -0.014399
-0.264314 0.042077 0.198366
-0.108526 0.344281 0.343767
0.040679 -0.272324 0.105176
0.236013 0.448607 -0.040528
0.259189 -0.166269 0.053345
-0.189496 0.015761 -0.133873
-0.293571 -0.148680 0.034540
-0.024296 0.067874 0.250250
0.072062 0.171287 0.296401
-0.046934 0.220013 0.438546
-0.232062 0.033106 0.033274
-0.100850 0.425874 -0.151715
-0.220114 0.188760 0.297775
-0.040140 0.207530 -0.317809
-0.022646 -0.120373 0.215115
-0.055087 0.393679 0.111507
-0.263990 0.227978 -0.163454
0.279659 0.216216 -0.008941
-0.280651 0.358590 -0.024417
0.197192 -0.030105 -0.024943
-0.159131 0.044964 -0.242960
-0.163801 -0.066227 -0.260609
-0.182688 -0.068036 -0.025767
-0.106599 -0.048847 -0.033098
-0.150987 -0.042186 -0.149477
0.128383 0.459272 -0.019805
0.177511 0.221230 -0.125274
0.071322 -0.284076 0.173114
0.239428 -0.148277 -0.078788
-0.120328 -0.110254 -0.330947
0.101695 -0.150464 0.204675
0.059519 0.267910 0.362442
-0.042786 -0.055954 -0.023320
0.007030 -0.025855 -0.187810
0.135337 0.154672 -0.202976
0.273463 0.399234 0.035602
-0.083657 0.001589 -0.217741
-0.430467 0.275963 0.070117
0.234578 0.154108 -0.119831
0.149760 -0.243655 -0.059358
-0.404646 0.110743 0.015356
0.162836 -0.468911 0.034322
0.202727 0.347759 0.119487
-0.231423 0.339604 0.202714
-0.216812 -0.049613 0.045615
0.102471 0.443138 0.052815
0.165597 0.499909 -0.103576
0.164685 0.188752 -0.176925
-0.080799 0.057110 0.289175
-0.031196 0.090672 0.233564
0.072840 0.222489 0.301490
-0.389802 0.354754 -0.034231
-0.407380 0.099947 0.062122
-0.419925 0.267885 0.051170
-0.322215 0.189001 0.220958
-0.363044 -0.176661 -0.040343
0.166441 -0.078790 -0.108000
0.064298 0.124521 -0.219439
0.113053 0.434234 -0.155295
0.167226 0.193882 -0.174902
-0.122050 0.078763 0.305758
-0.372581 -0.023843 0.082003
-0.183945 0.187502 -0.232047
-0.219541 -0.131772 -0.009579
0.200667 -0.452747 -0.041156
0.094787 0.293064 -0.200250
0.290489 0.339393 -0.055539
-0.088738 0.063521 0.284184
-0.317806 0.415378 -0.230210
-0.271638 0.332244 0.190175
-0.043052 0.259548 0.443282
0.285836 0.348516 -0.058211
-0.104388 0.103344 0.331202
0.234305 -0.338372 -0.010716
-0.057585 0.305845 -0.322066
0.062950 0.265846 -0.242721
-0.263748 0.431008 -0.189792
-0.182600 0.134994 -0.187808
-0.103382 -0.134928 0.061455
-0.393686 -0.038936 -0.044928
-0.006208 -0.310826 -0.085769
0.071632 -0.104557 -0.091987
-0.122718 0.353921 -0.284971
-0.369829 -0.065456 0.062181
0.087043 0.315450 -0.200427
-0.239766 0.006793 -0.027307
0.055809 0.395564 -0.125165
0.030520 0.063933 0.266854
-0.253140 0.206001 -0.161996
-0.434713 0.154675 0.078969
0.018584 -0.134672 -0.077142
-0.367701 -0.156445 -0.046396
-0.321200 0.071187 0.175564
-0.208300 0.043931 0.069624
-0.154543 0.020551 0.138448
-0.181774 0.412215 -0.211756
0.236091 -0.041034 0.021810
0.040838 0.116914 0.335946
-0.007069 -0.197333 0.020564
-0.028840 -0.185696 0.057012
0.189616 -0.070618 0.158761
0.119821 0.467104 -0.156728
0.166438 -0.100033 -0.103992
0.007256 0.142457 -0.212680
-0.214683 0.255459 -0.207022
-0.020937 -0.168145 0.009490
-0.187295 0.111470 0.283831
0.253668 -0.237387 -0.022708
0.035197 -0.373929 0.055967
-0.214516 0.078891 0.263550
0.100415 -0.459554 -0.095920
0.111108 0.470921 -0.064028
0.222210 0.246555 0.111889
-0.375032 0.268882 -0.028073
-0.149095 0.347526 0.270069
-0.216306 -0.071386 -0.081973
0.031471 0.451949 -0.230558
-0.160309 0.361920 0.164936
-0.148351 0.375740 0.089032
-0.019412 0.400495 0.134728
0.060021 0.505428 -0.128189
0.106762 0.194226 0.259282
0.038683 0.451188 -0.226510
-0.042288 -0.172715 0.109048
0.165790 0.050362 0.208275
0.026623 0.316722 -0.264350
0.099411 -0.071807 0.218693
-0.011814 -0.218249 0.084863
0.248675 0.461340 -0.046344
-0.102956 0.101602 0.338975
-0.133655 -0.000632 0.199067
-0.186367 0.031122 0.130509
-0.381872 -0.143221 -0.036652
-0.272260 -0.153132 -0.017503
-0.135432 -0.076952 -0.272265
-0.363582 0.339830 -0.029289
-0.227307 0.174441 0.287631
-0.274888 0.281135 -0.141826
-0.218173 0.219040 0.301006
-0.238900 0.262310 0.275280
0.156501 0.180032 -0.086790
-0.096297 -0.038837 -0.176213
-0.046586 -0.126958 0.016106
-0.074314 0.397755 0.057979
-0.381429 0.132872 0.000341
0.101841 -0.391574 0.028580
-0.224308 -0.058035 -0.236711
0.137998 -0.269244 0.171749
0.173477 -0.352915 -0.094705
0.075738 0.272995 -0.235499
-0.145837 -0.043347 -0.165118
0.092891 0.493223 -0.074682
-0.170917 0.425605 -0.273365
-0.234582 -0.123990 -0.208388
0.190428 -0.141682 0.156894
-0.434666 0.255753 0.074136
-0.132158 -0.086641 -0.318829
0.160075 -0.416623 -0.044155
-0.344835 0.275068 0.234591
0.250643 -0.261778 0.001195
-0.047859 0.450339 -0.282672
0.078016 0.436160 -0.197888
-0.058570 -0.068285 0.210440
-0.095371 -0.033284 -0.099623
0.082372 0.412531 0.214335
-0.192147 0.358288 0.134481
-0.228736 -0.028590 -0.211198
-0.003703 -0.086075 -0.154190
0.166260 0.118611 0.191086
0.084128 -0.197588 0.206090
-0.166248 -0.010077 0.215445
0.085162 0.441566 0.035445
-0.333323 0.182087 0.217299
-0.021768 0.422436 -0.021086
0.165475 0.187449 -0.107722
0.216749 0.173053 -0.135254
0.040200 -0.120908 0.197044
-0.152141 0.033553 0.282687
-0.235224 -0.095757 -0.051177
-0.191362 0.403301 -0.157272
-0.102978 0.448983 -0.328321
-0.266157 -0.089130 -0.173214
-0.283337 0.398975 -0.156996
0.224972 0.395779 -0.051985
-0.433738 0.170277 0.044930
-0.240573 -0.117233 -0.041933
0.163648 0.371872 0.149119
-0.168680 0.347459 0.242394
0.075675 -0.325990 -0.118906
0.048303 0.021157 -0.169719
0.213845 0.501209 -0.067833
0.155185 -0.174673 -0.090206
-0.073797 0.033335 -0.235665
-0.139491 0.198522 -0.329292
-0.264829 0.446816 -0.270032
-0.431293 0.278755 0.079268
0.018501 0.309153 0.372247
0.161562 0.057958 0.213474
0.030282 0.502796 -0.183316
0.220744 0.080946 -0.134010
-0.198355 0.400649 -0.153908
0.207576 -0.015581 -0.045389
0.171597 0.378443 0.122751
-0.354251 -0.036397 0.086561
-0.115928 0.349666 -0.332935
-0.355028 -0.020446 -0.050811
0.063242 0.114954 0.273597
0.103063 -0.164107 -0.083129
0.266728 0.437751 0.000167
0.159974 0.305195 -0.140302
-0.184545 -0.134410 0.070831
0.265805 0.442565 -0.004378
-0.012032 -0.207055 0.175472
0.205318 0.110375 0.155712
-0.158521 0.356492 -0.281160
-0.146935 0.336027 0.378266
0.029250 -0.012193 0.245736
0.146239 0.243652 -0.163437
0.183044 -0.084082 0.165000
-0.181677 0.286789 -0.295423
0.231948 -0.102140 0.097464
-0.189189 0.099708 -0.298457
-0.271768 0.301057 0.307945
-0.391586 0.324359 0.020862
-0.054452 -0.096400 -0.225721
-0.413419 0.100010 0.029596
-0.098959 0.355941 0.294455
0.202635 0.129257 -0.047662
0.135439 0.448061 0.068414
-0.240792 0.063712 0.117505
-0.095437 0.041490 -0.209116
-0.140331 0.003084 0.267301
-0.008122 0.395191 -0.262585
0.071290 -0.007712 -0.161875
-0.361219 0.009589 -0.044256
0.036078 0.267600 -0.265519
-0.069439 0.114002 -0.181831
-0.430862 0.275426 0.127750
-0.140066 0.201336 0.330825
-0.127781 -0.003758 0.169599
-0.129094 0.482621 -0.307288
0.057044 -0.286938 0.161195
0.219407 0.395254 0.112264
-0.254194 -0.045667 -0.014595
0.285489 0.215570 0.014547
0.253141 -0.079327 -0.053910
-0.231692 0.167061 0.279447
-0.384514 0.317870 0.166591
-0.137402 -0.059210 -0.289237
0.247894 0.061975 -0.057250
-0.159863 0.037928 -0.153805
-0.147158 0.105190 -0.251101
-0.124913 0.436950 -0.347761
-0.042706 0.193269 -0.317248
-0.100366 0.032252 -0.370354
0.200799 0.433105 0.108948
-0.107100 0.484239 -0.303899
-0.273578 -0.045892 -0.135816
-0.184592 0.202763 -0.275715
-0.012790 0.184816 0.420428
-0.090179 0.363216 0.262835
-0.230418 0.105276 0.266368
0.149698 -0.124410 0.194313
0.196560 0.058123 -0.136762
-0.310905 0.372008 -0.122565
-0.305904 0.136746 -0.053146
-0.260459 0.347809 0.101114
-0.267597 0.016366 0.097936
0.137238 0.474642 -0.134876
-0.231906 0.397293 -0.188758
-0.146566 -0.013685 0.134175
0.169441 0.073225 -0.144234
0.140696 0.234545 -0.193124
0.129944 0.374121 -0.064347
0.223643 0.105724 -0.033205
0.214359 0.157089 0.117096
-0.262332 0.021086 0.098034
0.014122 -0.215068 0.194835
0.171718 -0.014747 -0.119533
-0.261126 0.377634 -0.308339
0.168063 0.467802 -0.011863
-0.175915 0.400007 -0.378031
0.033483 0.376181 0.292449
-0.008577 -0.284408 -0.007952
-0.180524 0.072461 -0.155502
0.224014 0.376742 -0.064135
-0.126507 -0.104902 0.113903
0.223825 -0.401659 -0.038107
-0.187348 -0.034625 0.099386
-0.037687 0.051615 -0.257507
-0.220231 -0.097402 -0.161295
-0.222873 0.460197 -0.276653
-0.277138 -0.025441 0.069551
0.098985 0.413697 0.213174
-0.427552 0.289926 0.010466
0.187831 0.505237 -0.001158
0.168024 0.351909 0.152142
-0.413666 0.172859 0.141881
-0.054583 0.217695 -0.327250
-0.095005 0.415185 -0.079162
-0.275336 0.291002 -0.101396
-0.027620 -0.151422 0.007189
-0.087743 0.032479 -0.361055
-0.218749 -0.105456 -0.009328
-0.347722 -0.021822 -0.050545
-0.002172 -0.263196 -0.027329
-0.157289 0.358827 -0.286345
0.164600 -0.455656 -0.082159
-0.072444 0.292509 0.434848
-0.142346 -0.070297 -0.204864
0.154523 0.431133 0.151515
-0.275150 0.221455 0.266135
0.245373 0.434698 0.066652
-0.011779 0.378121 0.295580
-0.238011 0.335018 0.225434
-0.295700 0.403191 -0.145024
-0.075431 0.090740 0.346704
-0.048224 0.091102 0.335546
-0.222091 -0.086679 0.052851
-0.053227 -0.007898 -0.311641
-0.144685 -0.001666 0.121305
-0.367940 0.136127 0.177327
0.066027 0.119814 -0.181337
-0.039715 0.000055 -0.207923
-0.293301 0.122972 0.218492
-0.233470 0.215685 -0.190070
0.163314 -0.250161 -0.059530
-0.058637 -0.130921 0.149801
0.246737 0.073524 0.045568
-0.206839 0.313082 -0.185809
-0.262179 0.329613 0.220624
0.162307 -0.097067 -0.103140
0.217670 0.109854 -0.137470
0.226852 -0.043027 -0.082403
-0.150383 -0.147128 0.067070
-0.000909 0.498303 -0.221655
-0.307643 -0.044950 -0.062540
0.041488 -0.350298 0.078078
-0.190324 0.012327 -0.113160
0.016079 0.100477 0.329987
-0.190286 -0.017110 -0.244876
-0.003319 0.378336 -0.268614
-0.205899 0.276363 -0.211940
-0.190952 0.337487 -0.234871
0.169108 -0.336020 -0.092227
0.241080 -0.230461 0.072742
-0.148276 0.136725 -0.352317
-0.274566 0.362097 -0.039427
0.246387 -0.128574 -0.077982
-0.156517 -0.095225 0.030942
-0.094248 0.179337 -0.320817
0.206662 -0.106736 -0.100641
-0.232523 0.065736 0.129320
-0.110575 0.449368 -0.233008
0.175495 0.329789 -0.095225
0.062185 -0.080285 -0.092571
-0.002172 -0.325217 0.021358
0.159952 0.201044 0.210179
-0.236119 0.333269 0.239331
0.060832 -0.105529 -0.093480
0.201925 -0.152070 -0.090980
-0.136761 -0.051518 -0.193373
0.318010 0.342114 0.037800
0.215459 -0.005321 0.134123
0.022448 -0.441001 -0.046230
0.301934 0.263666 0.071154
-0.057826 0.120507 -0.189471
-0.107698 0.409783 -0.059225
0.169816 -0.327025 0.123920
0.247708 0.191165 0.023581
0.010709 -0.082087 -0.101709
-0.260265 -0.035581 0.006921
-0.016725 -0.052059 0.280287
0.227995 0.468595 0.048503
-0.401261 -0.044899 -0.036756
0.210833 -0.089298 -0.100935
0.208140 -0.435958 0.038204
0.013302 -0.152162 -0.042250
0.089565 -0.416274 -0.116385
-0.228785 0.377673 -0.066332
-0.146772 -0.040595 -0.102759
0.015556 -0.323216 -0.098712
0.201685 -0.267747 -0.073116
-0.038127 0.028192 -0.190719
-0.161477 0.345194 -0.247244
0.200904 0.032545 -0.047162
-0.231963 0.387787 -0.133790
-0.119269 0.096316 0.297537
-0.019797 0.330994 0.406126
-0.286207 0.295110 0.289945
-0.240778 -0.142484 -0.140684
0.117134 -0.408894 0.035555
-0.102989 0.364877 0.230429
0.062201 -0.333322 0.098127
-0.108096 -0.083153 0.033394
-0.155511 0.315390 -0.302074
0.176520 0.399566 -0.095233
-0.186722 0.070666 0.279858
0.000501 -0.088337 -0.174619
-0.241969 0.334956 0.222465
0.142390 -0.443874 0.029041
0.146183 0.357749 -0.087039
0.092374 -0.000319 0.260378
0.136534 0.441486 0.119007
0.076038 0.448649 -0.033824
0.098871 -0.385800 0.111067
0.029767 -0.078663 -0.167437
0.113350 0.262630 -0.193286
-0.104001 0.368109 0.208473
0.054085 -0.472357 -0.010171
-0.373532 0.251030 -0.012165
0.084990 0.098236 -0.143941
-0.301231 0.085502 0.191189
0.018397 0.398533 0.205340
-0.038027 0.002817 0.283888
-0.107034 0.273519 0.404431
-0.207774 -0.066005 0.054306
-0.252258 0.000664 0.052157
-0.146529 0.423571 -0.216753
0.198226 -0.261052 0.122045
0.086812 -0.113849 0.203976
-0.268071 -0.154816 -0.093791
-0.243615 -0.104630 -0.060282
-0.173717 0.136498 0.305052
-0.067653 0.287024 -0.332510
-0.027071 0.008050 -0.190903
-0.340343 0.261526 0.239654
0.197109 0.137079 -0.152808
-0.351528 0.097451 0.167798
-0.408432 0.262002 -0.007354
-0.110497 0.063853 -0.197222
-0.173453 0.373032 0.065728
-0.092359 -0.087965 -0.257845
-0.012339 -0.209388 0.170596
0.066339 0.105416 -0.144910
-0.254021 -0.023107 -0.117909
-0.193194 0.311927 0.362008
-0.433631 0.156445 0.109160
0.058388 0.284611 0.344635
-0.056586 0.360777 0.329431
-0.116832 -0.111445 -0.317831
0.097879 0.398574 0.232704
-0.089319 -0.059383 -0.002053
-0.307093 -0.127388 -0.065338
0.079475 -0.141468 -0.084831
-0.420885 0.077051 0.041420
-0.310483 0.392576 -0.121255
-0.219237 0.185766 -0.188019
-0.036505 0.330264 -0.286630
-0.250473 -0.143887 -0.154334
-0.284585 0.353162 0.018377
0.052862 -0.424060 0.062700
-0.376904 0.003775 0.093203
-0.036368 -0.174452 0.069777
-0.293117 0.247783 -0.132851
-0.121052 0.379382 -0.345366
-0.309738 0.155761 -0.063631
0.009022 -0.376085 0.025386
-0.139458 0.259408 0.337243
-0.192469 0.288134 -0.248381
-0.219577 0.286817 -0.176043
0.111770 0.384675 -0.111565
-0.164562 0.342526 0.280938
-0.288259 0.327849 0.192573
0.212925 -0.451684 0.007008
0.066364 -0.412964 -0.111766
0.035944 -0.439334 0.035027
-0.337514 0.231299 -0.062856
-0.186678 0.046894 -0.334731
0.248866 0.055728 -0.053396
0.245213 -0.046871 0.060374
0.110383 0.416456 0.201410
0.202833 -0.152133 0.143634
-0.421672 -0.023037 -0.004941
-0.122764 0.020226 -0.375054
-0.103235 0.413792 -0.085485
-0.058580 0.447034 -0.293489
-0.141181 0.014626 0.146244
-0.038473 -0.066861 -0.235768
0.029107 -0.380220 0.049857
0.094029 -0.480417 0.024937
0.052482 0.293371 0.329923
-0.166948 0.059075 -0.245700
0.221223 -0.248126 -0.065766
-0.202657 -0.096207 -0.182226
-0.258961 0.065661 -0.064226
-0.046775 -0.044162 -0.050750
0.117592 0.206803 0.249455
0.117680 -0.297710 0.163125
0.169597 -0.135266 0.174884
0.197680 0.354530 -0.069018
0.121022 -0.203087 -0.074124
-0.122636 0.063505 -0.180776
0.091579 0.146501 -0.227711
-0.271566 0.299972 -0.140666
-0.293892 0.020777 -0.023165
-0.181283 0.033761 0.164464
-0.223959 -0.086565 -0.222275
-0.139891 0.010982 0.275508
0.203435 0.008289 -0.076212
-0.194935 0.448271 -0.268313
-0.343920 0.329198 0.214707
-0.189544 0.459086 -0.365592
-0.375171 0.080270 0.124691
-0.382266 0.363057 -0.049717
0.072277 0.208731 0.328832
-0.035995 -0.030939 -0.224056
-0.133523 0.388406 0.034500
0.211499 0.188514 0.053851
-0.110129 0.012950 0.301212
0.228284 -0.383734 0.011193
-0.386983 0.313461 0.201491
0.160124 0.246216 -0.151670
0.056376 -0.342994 0.089312
0.205932 0.012325 0.151274
-0.247146 0.367561 -0.026869
0.223166 0.496211 -0.005023
0.042041 -0.246451 -0.063284
-0.055009 0.391687 0.127766
-0.051212 -0.005906 -0.293949
-0.003074 -0.163522 0.210327
0.204259 -0.165629 0.141842
0.232511 0.094278 -0.125802
-0.097509 0.073988 0.276537
-0.114819 0.265578 0.332272
0.099737 0.425249 -0.144495
-0.247128 0.033609 0.153192
-0.191935 -0.064421 -0.165294
-0.199505 0.238380 -0.232065
-0.032823 0.086870 -0.308424
0.049921 0.438620 0.006822
-0.175980 0.048028 -0.268713
-0.053265 -0.096049 -0.215171
-0.288363 0.301887 -0.196009
-0.121406 -0.107937 0.114018
0.145056 0.447820 0.086124
-0.216515 0.022773 0.222787
-0.114385 -0.099390 -0.219367
-0.031097 0.365878 0.334980
-0.203447 0.246909 0.300040
-0.093603 -0.058888 -0.343524
-0.179969 -0.035202 -0.258681
-0.007370 0.126687 -0.204643
0.119605 0.122835 0.236811
-0.030873 0.407144 0.062112
0.003593 -0.045110 -0.199013
-0.147637 -0.077657 0.092393
0.153277 0.376218 -0.040922
0.104003 0.173094 0.266851
0.007375 0.283941 0.377748
-0.056243 0.364825 0.300126
-0.236467 -0.101464 -0.042499
-0.135607 0.266521 0.318273
-0.263365 -0.011603 -0.035887
0.264991 0.134018 -0.088028
-0.257293 -0.006836 0.060138
0.139221 -0.313179 0.147755
0.013194 -0.414014 -0.057182
-0.062941 0.101307 -0.196890
-0.429270 0.227735 0.024558
-0.137425 -0.057081 -0.360229
-0.014392 -0.231900 0.136226
0.210333 -0.389986 0.054654
0.051755 0.279883 -0.247563
-0.028646 0.260259 -0.308496
0.140948 -0.396958 -0.114740
-0.236076 0.384133 -0.115146
0.227409 -0.270939 0.080425
0.080679 -0.373442 -0.120305
0.176992 0.248393 0.177737
0.244464 -0.225676 -0.051084
-0.137434 -0.013843 -0.370389
-0.099322 0.416279 -0.343691
-0.007177 -0.373675 -0.023134
0.254365 0.195843 0.030011
0.079325 0.186864 -0.236336
0.070342 0.509582 -0.152254
-0.238272 0.226964 0.286710
0.245261 -0.245568 0.056349
-0.139043 0.187732 0.338158
-0.027108 0.090954 -0.297782
0.255513 0.090706 -0.105981
-0.126215 -0.009680 0.266898
-0.138003 -0.082556 -0.343754
-0.131600 0.419023 -0.367713
0.292335 0.222310 -0.021122
-0.081891 0.270903 0.425426
0.295873 0.226857 0.003516
-0.221681 -0.151864 -0.015041
-0.158821 0.212367 -0.322092
0.007293 0.268402 -0.289469
-0.168029 0.474508 -0.296793
0.196197 0.130458 -0.064466
-0.174255 0.077827 -0.165656
-0.184323 -0.114959 -0.199921
0.053500 0.158275 -0.251314
-0.165982 0.160378 -0.293581
-0.185081 0.448365 -0.277210
0.086605 0.414515 0.211042
-0.064267 0.009110 -0.341236
-0.089489 -0.123654 0.104691
-0.021093 -0.199296 0.067260
0.202832 0.448963 -0.084014
0.074326 0.344233 0.269697
0.030520 -0.087333 -0.112049
0.035053 -0.160264 -0.063221
0.206332 -0.291414 -0.071351
-0.399186 -0.105567 -0.008871
0.006103 0.446890 -0.129408
0.227949 0.137078 -0.127259
0.150643 0.297719 -0.154447
-0.166456 0.049068 -0.247583
-0.264443 0.265701 0.254334
0.231647 0.486109 -0.060356
0.228420 -0.158982 0.109971
0.167367 0.114005 -0.177266
0.022313 0.241575 0.401148
-0.113684 0.085852 -0.372492
0.219513 0.160240 0.063835
0.092570 -0.291364 0.169964
-0.244688 -0.013488 -0.114877
0.092970 -0.396626 0.103728
-0.017049 0.396408 0.164690
-0.280530 -0.103373 -0.149761
-0.128049 0.480155 -0.261655
-0.255555 0.249346 -0.182141
0.216872 -0.222655 -0.076115
-0.106616 0.119330 -0.350635
0.264100 -0.208663 0.023015
0.005279 0.394173 0.213122
-0.176509 -0.019076 -0.255218
-0.093274 -0.123314 0.093368
-0.406713 0.255448 0.185136
-0.212270 -0.000496 -0.174895
0.234760 0.165582 -0.087178
-0.045638 0.044720 -0.194070
-0.229212 0.333056 0.324044
-0.181800 0.313503 0.362358
-0.043412 0.108957 -0.209999
-0.190455 0.095038 -0.328553
-0.315950 0.350340 -0.023880
-0.255952 0.256493 0.265472
0.270920 -0.177989 -0.009549
-0.268787 0.271436 -0.164162
0.051848 -0.299605 0.067552
-0.298027 0.042217 0.152730
0.062313 0.166905 0.334007
0.129151 0.107684 0.237345
-0.360432 -0.139351 0.020436
-0.064113 -0.069478 -0.276371
0.004421 -0.221459 0.026959
-0.179769 0.002062 -0.315244
-0.200160 0.258910 0.295607
0.065286 0.434995 0.048779
-0.186220 0.050242 0.268132
-0.308203 0.347253 -0.234902
-0.112603 -0.049670 -0.194544
0.127058 0.044686 -0.141091
0.100259 0.254716 -0.221593
0.274476 0.213716 -0.013113
-0.112290 0.080757 -0.186786
-0.174039 0.384088 -0.007277
0.186950 0.163287 -0.094215
-0.151697 0.126975 -0.194662
-0.249667 -0.007588 -0.086316
0.214257 -0.062552 -0.098790
-0.304265 0.026292 -0.031045
0.135455 0.226168 0.232741
0.081268 0.446014 -0.006145
-0.202919 0.395357 -0.125422
-0.287695 0.155853 -0.090865
0.244517 -0.051184 0.074855
0.129644 -0.066047 -0.095949
0.207226 0.126859 -0.034567
-0.237623 0.292726 0.251737
0.177748 0.147279 0.179710
-0.253070 -0.160022 -0.004231
0.015350 -0.166888 -0.036635
0.191963 0.500463 -0.084572
0.021388 0.188385 -0.279536
0.157561 -0.429802 0.085569
0.128245 -0.041753 0.224412
-0.059705 0.435157 -0.152127
-0.234374 0.458051 -0.299831
-0.137975 -0.112109 -0.231644
0.247765 0.064783 0.049138
0.254582 0.438549 -0.027392
-0.008532 -0.081286 -0.210165
0.096441 -0.095649 -0.094409
-0.054910 0.146605 0.413407
0.015852 0.346377 0.328722
-0.334091 -0.155782 -0.053763
-0.369243 0.347475 -0.043808
0.109189 -0.453150 0.076745
0.204771 0.215793 0.149916
0.198518 -0.387928 0.071979
0.003626 -0.181575 0.206695
-0.083712 -0.081629 -0.262366
0.307891 0.273419 -0.027427
-0.161563 -0.028789 -0.352255
0.054550 0.450897 -0.080880
-0.294542 -0.119349 -0.107245
-0.036878 0.057430 -0.251870
0.156390 -0.248861 0.169349
0.144138 0.071526 -0.121350
-0.271278 -0.153028 -0.000627
-0.070863 0.411458 -0.022405
-0.208002 0.347514 0.180624
-0.314120 -0.174895 -0.032063
-0.237381 0.038744 0.054771
0.053126 0.377118 -0.176275
0.131866 -0.398840 0.028414
0.204196 0.043034 -0.040852
-0.134023 -0.063448 -0.287695
-0.324661 0.210402 0.228608
-0.113488 -0.095539 0.135633
-0.199596 0.185519 -0.200569
-0.031508 -0.007035 0.299365
-0.128785 -0.055987 -0.019156
-0.382019 0.117481 0.150367
0.227774 0.366245 -0.077252
0.138633 0.229094 -0.196299
0.007712 -0.237235 0.062062
0.198434 -0.316566 0.102975
-0.221657 -0.133384 -0.195917
-0.026495 0.197462 -0.305633
-0.043078 0.117124 -0.205180
-0.014623 -0.052424 0.274213
0.212262 0.177919 -0.095405
-0.070628 0.287103 0.436057
-0.116115 0.343506 0.382349
0.242729 -0.000619 0.077233
0.193215 -0.056466 -0.109074
-0.215928 0.026480 0.048212
0.104785 0.439330 0.081241
-0.406192 0.043197 -0.035442
0.014873 -0.423428 -0.051949
-0.049269 0.157414 0.416740
-0.335752 0.413266 -0.139216
0.142941 0.113352 -0.187561
0.089148 -0.038889 -0.100597
-0.047287 0.452939 -0.184271
0.051486 -0.282110 0.162412
-0.146239 0.115129 -0.220168
0.020190 0.396863 -0.179932
-0.327442 0.252649 -0.086350
-0.265443 0.329920 0.213684
0.151415 0.348831 0.181116
-0.248896 0.097423 0.247897
-0.026030 0.075430 -0.267290
-0.311153 0.271891 -0.087051
-0.070559 -0.097783 -0.246797
-0.056445 0.250580 -0.330042
-0.193259 0.225452 0.311313
0.044809 -0.288005 0.103225
0.004296 -0.044025 0.192740
0.125116 0.242882 -0.205165
0.053088 -0.162311 0.212296
0.213228 0.138590 0.011656
-0.036842 -0.174547 0.060341
0.195545 -0.426472 0.057432
-0.057233 0.107569 -0.178259
-0.341908 0.332901 -0.186961
-0.193594 -0.013595 0.083152
-0.008401 -0.221488 0.074277
0.079265 0.330166 -0.200645
0.084680 0.183743 -0.232313
-0.418195 0.322396 0.008161
0.094121 -0.199723 -0.071349
-0.050181 -0.133845 0.096728
0.258348 -0.185461 0.057700
0.193919 0.261309 -0.113870
-0.051593 0.358691 0.348199
-0.207464 0.044625 -0.103859
0.128190 0.232829 0.238601
-0.035605 0.416059 -0.002487
-0.289937 0.354586 -0.012646
-0.241048 0.382515 -0.113120
-0.142037 0.479431 -0.332433
0.269841 0.325649 -0.078543
-0.344039 0.129887 0.192556
0.181874 0.199057 0.185465
0.066604 0.260325 0.345054
0.228110 -0.092993 0.104763
-0.181847 -0.061572 -0.175670
-0.011859 0.365493 0.345014
-0.103754 0.260787 0.369847
-0.204152 0.462195 -0.270234
0.153192 0.123766 -0.187960
-0.321425 0.243059 0.242703
0.232837 -0.197119 0.099418
-0.040900 -0.110534 0.211040
0.190130 -0.364684 0.088869
-0.403409 0.266728 0.025699
0.036915 0.358131 0.299347
0.046010 -0.469550 -0.015726
-0.193884 0.229832 -0.235918
-0.221835 -0.077147 -0.134641
-0.148965 0.084972 -0.229171
0.193235 -0.179222 0.149235
-0.218734 -0.154294 -0.003455
-0.163800 0.013921 0.190451
0.055585 0.292038 -0.243321
0.230451 0.095391 -0.066694
-0.145931 0.121839 -0.215774
-0.318251 0.174741 0.216349
-0.406206 0.309565 0.110176
-0.370932 -0.095623 -0.055187
0.201807 -0.448144 0.041188
-0.059038 -0.060567 0.233956
-0.239207 -0.059860 0.020096
-0.211665 0.288354 0.345473
-0.097748 0.320916 -0.310766
0.224070 -0.040616 -0.085481
-0.216558 -0.050924 -0.242035
0.115299 -0.478049 0.042036
0.068762 -0.015841 0.255458
-0.413630 0.289080 0.168314
-0.268971 0.269758 -0.109507
-0.184098 0.014459 -0.118357
0.249618 -0.078608 -0.062961
-0.310142 -0.126253 -0.061231
-0.132176 -0.095167 -0.340659
0.237142 -0.310252 -0.021800
-0.055811 0.439133 -0.171013
0.170687 -0.450247 0.014387
-0.000110 -0.032755 0.206513
-0.349912 0.129128 0.188568
0.135852 -0.261526 0.177145
-0.073928 0.405103 -0.305189
-0.185521 0.292806 -0.227896
0.066177 0.176402 0.335412
0.102735 0.307689 0.249168
-0.235473 -0.118490 -0.136636
-0.216098 0.407135 -0.229227
-0.415843 0.226729 0.008411
0.021375 -0.387691 0.040190
0.168348 0.512736 -0.023466
0.025986 0.137462 -0.204959
-0.009046 -0.367018 -0.008627
0.026955 -0.087227 -0.121599
-0.235226 0.252971 0.281721
0.029733 0.059268 -0.168423
0.017535 0.418117 -0.232459
-0.225812 0.345467 0.167077
0.073110 0.175863 0.315622
0.203228 0.020254 0.156829
-0.350407 -0.072204 0.065419
0.092402 -0.045710 -0.134855
-0.103655 0.127295 0.366922
0.028372 0.399258 -0.209630
0.116479 -0.406225 -0.051312
-0.409722 0.175141 0.143978
0.146520 0.087159 0.230129
-0.271993 0.014469 0.099669
0.213060 -0.153387 0.129568
-0.283492 0.241289 -0.146806
-0.427425 0.058475 0.046734
-0.140997 0.384048 0.047799
-0.145996 -0.040907 -0.096168
-0.268178 -0.046759 -0.140333
-0.102649 0.077587 0.279360
-0.293096 -0.158837 0.014049
-0.014927 0.239248 -0.302899
0.239326 0.023543 -0.052677
-0.210089 -0.075644 -0.046073
-0.404367 -0.072492 0.027077
-0.333759 0.322728 -0.160968
-0.128870 0.019616 -0.374854
0.254136 -0.229426 -0.028187
-0.039518 -0.044750 0.298901
-0.003339 0.422909 0.014275
0.082425 0.472568 -0.085691
0.007396 0.278106 -0.288005
0.074271 0.194432 -0.239512
0.161832 -0.325775 -0.091868
-0.197538 -0.128836 0.066491
-0.330387 -0.130780 0.046452
0.241022 0.037607 0.102457
0.140181 -0.247673 -0.061856
0.033996 -0.284405 0.120824
-0.163483 0.143145 0.313025
0.048294 0.037584 -0.172686
-0.424275 -0.012464 -0.006057
-0.267998 0.101407 -0.076395
-0.012606 -0.063536 -0.038062
-0.249163 0.429513 -0.310660
-0.161001 0.213998 0.324243
-0.107001 0.224592 0.403356
0.107747 0.430134 -0.148407
0.191201 0.297043 0.146596
-0.276987 -0.120543 0.049866
0.181825 0.208334 -0.127931
-0.312434 -0.052489 -0.069192
0.042057 -0.380109 0.060947
0.005689 -0.176771 -0.018719
-0.370508 0.031750 0.100824
-0.079163 -0.067312 -0.317972
-0.294758 0.162403 0.231420
0.151784 0.249947 -0.160112
-0.031321 0.345095 0.382712
0.184664 0.470250 -0.000752
-0.024906 0.436631 -0.117033
-0.006257 -0.322165 0.015774
-0.354523 -0.138192 0.024556
-0.175575 0.473413 -0.300022
0.209223 0.182298 -0.041205
-0.149163 0.479768 -0.325092
0.243884 -0.058095 -0.047573
-0.430225 0.142356 0.076663
-0.092220 -0.087295 0.034856
0.202903 0.427853 -0.065664
-0.206980 0.385791 -0.357164
0.145959 -0.389666 -0.013696
0.262174 0.309720 -0.083821
0.027133 -0.223488 0.196371
-0.186724 0.288189 -0.228481
-0.153815 -0.016278 -0.263259
0.272699 -0.132921 -0.033947
-0.021989 -0.039603 0.291190
-0.059662 -0.031354 -0.237458
0.244060 0.425021 -0.040789
-0.420403 0.193202 0.139257
-0.321142 0.332419 -0.208359
-0.249895 0.050623 0.218759
-0.112338 0.257332 0.337920
-0.143151 0.339470 -0.286280
0.182496 0.151626 -0.041324
-0.066051 0.120933 -0.312399
0.092776 0.025044 -0.159381
-0.071753 -0.038700 0.289923
0.031049 -0.041419 -0.167961
-0.169289 -0.149901 0.054412
-0.163225 0.204581 0.324518
-0.153596 0.107068 -0.190453
-0.133152 0.220285 0.343550
0.144942 -0.027435 -0.119802
0.030680 0.471743 -0.124271
0.220979 -0.320442 -0.058357
-0.173778 -0.117232 -0.246945
-0.302575 0.131101 -0.055984
0.136358 0.518017 -0.092383
-0.411891 0.026523 -0.036282
0.238562 0.053983 -0.037987
0.161032 -0.216492 -0.060564
0.235590 0.110774 0.033152
-0.426323 -0.010693 0.011761
-0.054870 -0.144407 0.175976
-0.215758 0.338148 0.238679
-0.077812 0.197929 -0.316627
0.057536 0.286124 0.296155
0.313378 0.356740 0.029050
0.160675 0.170109 -0.064461
0.218389 0.132520 -0.076752
0.052018 0.391381 -0.127949
-0.100559 0.271670 0.408327
-0.078647 0.158888 -0.306649
-0.324636 0.109889 0.193152
0.158758 0.093280 -0.171923
-0.247374 0.073660 -0.082165
-0.254756 0.429060 -0.304518
-0.215226 0.399040 -0.174015
0.199003 0.414059 -0.072743
-0.189832 -0.099116 0.015135
0.172196 0.238799 0.187089
-0.269490 0.357462 0.006024
-0.229969 0.382860 -0.342213
-0.233553 0.382746 -0.095964
-0.337751 0.284054 -0.099170
-0.196791 -0.021692 0.084970
-0.142020 0.017307 0.278314
0.027367 -0.021474 -0.164329
-0.142227 0.371700 0.125502
0.006597 0.426422 0.009974
0.220869 -0.337387 -0.055160
-0.097627 -0.084246 -0.338506
-0.421099 0.130271 0.036078
-0.056943 0.363941 0.306787
-0.274416 0.126296 0.238033
0.258450 -0.102763 0.012692
-0.008626 -0.297588 -0.082421
-0.056257 -0.065736 -0.190628
0.070292 -0.324626 0.130018
0.102377 0.370729 -0.127187
0.231449 0.085037 -0.125488
-0.191746 0.332720 0.354774
-0.408949 0.300387 0.161999
-0.143003 0.087107 0.300882
-0.051253 0.492123 -0.227172
0.175427 0.156911 -0.026274
0.258586 0.196750 0.027359
-0.132370 0.178506 -0.326028
-0.182247 0.020788 0.087252
-0.322023 -0.176236 -0.047814
-0.185007 0.367352 0.084346
-0.132308 0.337941 0.387798
0.171930 0.166355 -0.011332
-0.321265 0.100909 0.190245
-0.054302 0.120570 -0.192549
-0.097848 0.001065 -0.238134
-0.157544 0.197646 -0.319158
0.102944 0.170831 -0.222552
-0.156504 0.251548 -0.327203
0.009046 0.395272 0.210203
-0.201391 0.403146 -0.179501
-0.410905 0.099368 0.051490
-0.228577 0.446010 -0.233017
0.245070 0.088568 0.045208
-0.211686 0.336847 -0.262985
0.102490 0.276659 -0.216291
-0.195341 -0.104642 0.071729
-0.322416 0.421927 -0.171773
-0.241067 0.366171 -0.002649
-0.114670 0.430590 -0.207938
-0.026480 -0.211033 0.139057
-0.002595 -0.062292 0.258687
0.031694 -0.293101 0.049314
0.000744 -0.015157 0.260102
-0.054932 0.286236 -0.326365
0.214621 -0.011793 -0.079666
-0.050117 0.270355 -0.318351
0.001435 -0.198074 0.005079
0.061906 0.115933 0.279319
-0.049208 -0.090948 -0.240002
-0.335132 0.010658 0.111827
-0.286820 -0.108489 0.050788
-0.236411 0.321297 0.337756
-0.010023 0.417110 0.040055
-0.266765 0.155806 -0.115181
-0.126871 0.402773 -0.048136
-0.012727 0.400047 0.148970
0.019454 -0.082193 0.183250
-0.354016 0.257536 -0.077510
-0.065421 0.275583 0.435207
0.085420 0.259410 -0.229809
-0.127612 -0.083818 -0.268553
-0.056367 0.060151 0.263556
0.094033 0.267436 0.266946
0.004518 0.433839 -0.042133
0.015111 -0.412403 0.017260
-0.078233 -0.034160 -0.082710
-0.340084 -0.029883 0.091403
-0.120582 0.099923 -0.189728
-0.401791 0.289378 0.189849
-0.157539 -0.045689 -0.153056
-0.207998 0.287041 0.276429
0.139659 0.092122 -0.153695
-0.037326 0.095896 0.235843
-0.039205 0.032785 -0.279553
-0.371668 -0.073086 -0.052804
0.158138 -0.152370 -0.104113
0.067505 -0.436064 0.069147
-0.158434 0.151055 -0.322734
0.001759 0.436888 -0.069427
0.044035 -0.461916 0.012273
-0.198720 0.434772 -0.376452
-0.108172 -0.099062 -0.344465
0.024385 0.333212 -0.261656
-0.217323 -0.001122 -0.180144
-0.298705 -0.135123 -0.072386
0.250730 0.419173 0.046914
-0.292906 -0.161461 0.009065
0.152285 0.178139 -0.090269
0.209072 -0.447779 -0.047531
-0.188758 0.311509 0.363083
0.074309 0.090965 -0.137084
0.004653 -0.097139 -0.053315
0.197042 -0.054370 -0.107569
0.072873 0.504234 -0.102275
0.240115 0.480471 -0.043208
0.235013 -0.010457 0.101471
-0.346320 -0.185798 -0.010468
0.072234 0.226986 0.312313
-0.167641 -0.114730 -0.249122
-0.186727 0.365095 0.095597
0.059331 -0.362528 -0.115998
0.052299 -0.288284 0.073490
0.014246 0.103248 0.337990
-0.004236 -0.187779 0.003113
0.057315 -0.312871 0.124674
-0.022223 0.127423 -0.288478
-0.046737 0.061360 -0.233298
-0.337326 0.410307 -0.205441
0.003636 0.132644 -0.207294
0.172562 0.355700 -0.049318
0.061859 0.373967 -0.175030
-0.110906 0.355101 0.279939
-0.058654 -0.120131 0.025698
0.029808 -0.332218 0.060861
0.188932 0.157792 0.174373
-0.420780 0.283475 0.153564
-0.099042 0.064486 0.311577
-0.031038 -0.072363 -0.176847
-0.057332 -0.027115 0.307642
-0.007346 -0.016268 -0.195873
0.140332 -0.404563 -0.113719
-0.023283 0.414139 0.033469
-0.325556 0.131039 -0.018436
-0.287306 0.088348 -0.033200
0.116101 0.152805 0.263348
-0.300128 0.236066 -0.124247
0.105823 -0.112040 -0.096708
-0.136989 -0.133065 0.085423
-0.317165 0.303891 -0.117407
0.067608 -0.134777 0.197283
0.002630 -0.087759 -0.182652
-0.109987 -0.101343 -0.220218
-0.388130 0.340498 -0.018622
-0.404931 -0.089641 -0.011553
-0.273675 0.032672 0.163516
0.266657 0.036796 -0.091581
0.200027 -0.108984 0.146019
0.124975 -0.160503 0.202876
-0.369789 -0.132504 -0.054970
-0.343201 0.227160 -0.050835
0.127744 0.285296 -0.179392
-0.320809 -0.060774 -0.051144
-0.078396 -0.008171 0.309718
-0.267404 -0.052665 -0.016475
-0.017342 0.413467 -0.260296
0.218214 0.283289 0.120701
-0.229430 0.363213 0.040387
-0.283637 0.173623 0.246147
0.045765 -0.299863 -0.108976
-0.040385 0.009078 0.299093
-0.295587 0.408278 -0.146242
0.181822 0.336897 -0.075594
0.080563 -0.165241 -0.079241
0.025113 -0.134236 -0.084290
-0.373373 0.271051 0.211457
0.213348 -0.277707 0.096963
0.044278 -0.467772 -0.021818
0.197303 -0.274658 -0.074610
-0.413732 0.099405 0.036471
0.000115 -0.144696 -0.022511
0.093094 -0.473543 0.001204
-0.031903 0.366910 0.328133
-0.200003 -0.010576 0.072109
-0.372720 0.092844 0.141458
-0.129657 0.442365 -0.247286
-0.240818 0.034239 0.046032
0.227868 0.385670 0.059372
0.189885 -0.052085 0.158037
-0.044967 -0.138667 0.108151
-0.246095 0.225875 0.280268
0.000583 -0.063338 0.190474
0.040453 -0.280274 0.106255
-0.101497 -0.086986 -0.260706
-0.050537 0.059532 0.263712
-0.028805 0.226967 -0.309196
-0.156378 -0.107490 -0.253930
-0.236718 0.087762 -0.106352
-0.331791 0.133035 0.200581
-0.007997 -0.318584 0.012474
-0.281914 0.213322 0.258617
0.151040 0.490880 -0.121930
0.016676 -0.253019 0.026055
0.198512 0.361218 -0.059413
0.096328 0.375129 -0.114132
-0.270377 -0.008670 0.078700
0.118155 0.213961 -0.211674
-0.330169 -0.149297 -0.055149
-0.250214 0.352529 0.085292
0.152257 0.352492 0.178536
-0.089286 -0.049226 -0.029018
-0.346081 -0.032316 -0.051599
-0.211010 0.460730 -0.352652
-0.140121 0.262232 0.321677
0.225309 0.061815 0.131061
0.108263 -0.029521 -0.099758
-0.030448 0.406568 0.066943
0.223751 0.501058 -0.061528
-0.273885 0.246551 -0.160304
-0.099243 -0.127661 0.043568
0.175410 0.355290 0.132808
0.128909 0.043827 0.247935
-0.440945 0.170070 0.072382
0.071851 -0.019830 0.252361
-0.173484 0.075954 -0.258566
-0.100320 0.254199 -0.333205
0.309499 0.250858 -0.002567
-0.025707 -0.091307 -0.203090
-0.058287 0.088107 0.275237
-0.142253 -0.004712 -0.369722
-0.401295 0.311284 -0.115803
-0.150051 -0.068367 0.124640
-0.368340 0.260617 -0.014748
0.101208 0.363903 -0.150931
-0.241937 -0.088087 0.034879
0.202203 0.139822 -0.083012
-0.236336 -0.123718 -0.135381
0.062620 0.236974 -0.246158
-0.272448 0.338788 0.145181
0.082426 -0.376990 0.108089
0.197095 0.014400 -0.060520
