0.120112 0.291831 0.037519
0.068894 0.238698 0.024280
-0.110346 -0.089492 -0.290139
0.163564 0.388554 -0.135315
-0.025708 0.039154 0.169247
-0.131129 -0.111403 0.104310
-0.025603 0.051702 -0.217535
0.091922 0.263888 -0.076774
-0.272610 -0.249283 -0.010634
0.067689 0.137461 -0.189996
-0.184509 -0.109512 -0.017419
-0.148479 -0.078449 0.064920
0.101113 0.419574 -0.109192
0.266899 0.430890 0.011895
-0.105078 -0.076622 0.116399
-0.129348 0.020536 -0.026871
-0.169790 -0.156114 0.115191
-0.149998 -0.050077 0.085023
0.027448 0.138148 0.103890
0.070126 0.324393 -0.143105
0.186175 0.385931 -0.080982
0.134410 0.405901 -0.165078
0.009971 0.161891 -0.181854
0.067266 0.205459 0.041561
-0.047635 0.193572 0.021829
0.149547 0.363921 -0.080023
0.116992 0.409425 -0.134751
0.142582 0.295075 0.007540
0.188230 0.348805 -0.023173
-0.152355 0.067647 -0.008464
0.235841 0.446480 -0.006406
0.138811 0.187593 0.033413
0.026461 0.208462 0.025277
-0.043145 -0.382426 0.216362
-0.111937 -0.060880 0.086610
-0.257541 -0.226885 0.026541
0.115262 0.407594 -0.151308
-0.078962 -0.098492 0.188518
-0.072229 -0.375894 0.217571
-0.041302 0.166428 0.061104
-0.012278 0.222918 0.047822
0.129409 0.221209 0.064098
-0.020416 0.089642 0.144807
-0.108749 -0.100211 0.121443
0.139891 0.295322 0.007777
0.088278 0.215119 -0.102611
0.068197 0.240342 -0.123661
0.053539 -0.041761 0.256108
-0.165590 -0.067444 0.099691
0.020939 0.260060 0.038223
0.151620 0.380785 -0.152247
-0.028360 0.220148 0.031218
0.091464 0.185954 -0.133571
0.010372 0.261910 -0.105265
0.072333 0.237447 -0.090962
-0.096225 -0.045118 -0.288855
0.101002 0.161163 0.158800
-0.012531 0.132189 -0.235951
-0.217445 -0.267974 0.144441
0.081027 0.192125 -0.188892
-0.224717 -0.155465 -0.007226
0.119229 0.282456 0.039786
0.216732 0.434669 0.051310
-0.110999 -0.220922 0.229790
-0.024696 0.154678 -0.062273
0.042409 0.215111 -0.030957
-0.039023 0.246087 -0.055477
0.244396 0.440182 -0.023844
0.061775 0.202444 -0.025700
-0.179355 -0.175938 0.149170
0.158400 0.265216 0.043534
-0.180774 -0.101673 0.116212
0.106594 0.353867 -0.061000
-0.134349 -0.092524 -0.293061
0.078282 0.250133 -0.114146
-0.141259 -0.016861 0.080633
0.149000 0.293519 -0.050026
0.116944 0.383730 -0.107588
0.010869 0.174938 -0.006982
-0.167524 -0.041291 -0.051492
-0.107967 -0.111986 -0.274236
0.070187 -0.306644 0.304561
-0.204593 -0.195188 0.145574
0.153360 0.254678 0.064150
-0.185518 -0.410581 0.118001
0.064181 -0.242250 0.316012
-0.179780 -0.100685 0.119099
0.181508 0.374936 0.055949
-0.075727 0.050025 0.106082
-0.270108 -0.229211 0.011602
0.087865 0.033492 0.213929
-0.214795 -0.061962 -0.014998
-0.104372 -0.077393 0.119765
-0.030197 0.000973 0.121465
0.108783 0.249707 0.084035
0.225955 0.392004 0.034213
-0.265756 -0.221561 0.018966
-0.030634 0.050668 0.127266
0.152001 0.477636 -0.103256
0.073711 0.344572 -0.101221
-0.156139 -0.029230 -0.048493
0.114738 0.431773 -0.123591
0.161629 0.460264 -0.068270
0.030516 0.269629 -0.036090
0.153879 0.282135 0.083074
-0.163494 -0.431096 0.129196
0.168866 0.392744 -0.156557
0.104477 0.296062 0.029796
-0.083968 -0.035573 -0.237674
0.140358 0.339182 -0.042879
0.025667 0.265655 -0.035763
0.211383 0.384321 0.007265
0.111960 0.204166 0.065723
-0.020187 0.218757 0.045462
-0.031094 0.248020 -0.067472
0.103629 0.196421 -0.111032
0.205813 0.444090 -0.112563
0.237626 0.430587 -0.021097
-0.001887 0.053188 -0.235582
-0.096886 -0.056424 0.092360
-0.164492 -0.101816 0.136220
-0.142051 -0.087946 -0.288631
0.074083 0.236320 -0.123406
-0.037175 -0.020787 0.122221
-0.230379 -0.144379 0.023694
-0.019442 0.243442 -0.086583
-0.081288 -0.159077 0.231115
-0.129231 -0.125699 -0.267359
-0.164575 -0.095725 -0.001353
0.161218 0.265347 0.079239
0.050037 -0.196246 0.307179
0.005680 0.109910 0.136396
0.093427 0.207374 0.125764
0.071000 0.188541 -0.155386
-0.160377 -0.468053 0.130231
-0.084379 -0.214447 0.249602
-0.103329 -0.014460 -0.229033
-0.052121 0.079177 -0.261596
0.158239 0.481965 -0.095765
-0.124399 0.038034 0.075863
0.168995 0.483206 -0.120535
0.123430 0.175709 0.106217
-0.149383 0.048312 0.010826
-0.064642 0.168435 -0.077901
0.084218 0.259980 0.080421
0.088086 0.207719 0.042901
0.088117 0.227643 0.085619
-0.106160 -0.092988 0.106388
0.119677 0.359027 -0.028422
-0.047778 -0.099234 0.152148
0.001374 0.061894 0.126602
-0.027713 0.018940 -0.224757
0.094683 0.185070 -0.130180
-0.196250 -0.202634 -0.298576
0.036668 0.196280 0.010128
-0.045106 -0.106402 0.212651
0.179235 0.321173 -0.072361
0.003529 0.081157 0.140471
-0.018216 0.240147 -0.029439
0.055463 0.277277 -0.068309
-0.177267 -0.172079 -0.273119
0.013630 0.169392 0.005112
0.068300 -0.082693 0.253841
0.011796 0.181699 -0.049976
0.051480 0.180408 0.094768
0.124887 0.213989 0.074972
0.112486 0.408998 -0.127363
0.163180 0.484105 -0.131149
0.068923 0.196853 0.068047
0.166535 0.383079 -0.032215
0.100732 0.259899 0.084015
0.172839 0.360175 -0.074254
-0.062712 -0.093671 0.211880
0.082524 -0.011539 0.218693
-0.253945 -0.244634 -0.019128
0.137512 0.319524 -0.125408
0.115395 0.205278 0.066539
0.137700 0.369164 -0.095295
0.040720 0.215141 -0.095930
0.164751 0.322770 -0.059146
-0.198301 -0.072576 -0.043444
0.025856 0.095546 -0.233156
-0.249246 -0.308164 0.016277
-0.010213 -0.031728 0.178647
-0.200977 -0.243233 0.109873
0.042988 0.138776 -0.164790
0.120619 0.361518 -0.019879
0.048139 0.177697 -0.113624
-0.079820 0.015002 0.110492
-0.018707 0.167943 -0.034671
0.154996 0.372406 -0.143308
-0.012377 0.141552 0.109025
-0.233002 -0.111551 0.011647
0.189849 0.461693 -0.072152
-0.151846 -0.141609 -0.260383
0.084018 0.222903 0.075956
-0.190027 -0.209812 0.156574
0.093330 0.312414 -0.141210
-0.078997 0.177191 -0.069616
-0.140434 -0.113210 0.082844
0.059385 0.326059 -0.076629
-0.030778 0.149786 -0.048831
0.003810 0.225800 -0.133082
-0.030712 0.071917 0.122663
-0.191142 -0.067702 0.021633
0.044042 0.117682 -0.218734
0.100061 0.120759 0.162372
-0.270426 -0.286803 -0.000469
0.031413 0.275159 0.015860
0.152242 0.435627 -0.059686
-0.149916 -0.097262 -0.287104
0.150004 0.282152 -0.041963
-0.099891 0.135127 -0.019100
0.114986 0.387971 -0.020674
-0.074079 0.026600 0.071059
-0.271160 -0.231763 -0.004729
-0.131425 -0.061873 0.072129
0.006068 0.225665 0.051973
0.097910 0.288381 -0.100523
0.045293 0.270457 0.036824
0.142448 0.424419 -0.151221
-0.110707 0.137658 -0.051027
-0.015522 0.147130 0.019386
0.052296 -0.038086 0.254018
-0.112817 0.095609 -0.050129
0.215774 0.457647 0.029939
0.090284 0.156656 -0.177872
-0.068211 -0.351258 0.233231
0.099187 0.356552 -0.060138
-0.110634 0.060367 0.064400
0.093268 0.124829 0.150038
0.047649 0.226680 -0.153478
-0.033213 0.183727 0.057104
-0.170855 -0.117894 -0.284495
-0.172867 -0.118243 0.136330
0.015488 0.154551 0.115918
0.074833 0.241028 0.011887
0.173046 0.389391 -0.108422
0.217399 0.391689 0.038543
-0.086836 -0.220369 0.249566
0.103389 0.250910 0.006972
0.054363 0.256950 -0.105218
-0.160074 0.057950 -0.010521
-0.163288 -0.130732 -0.295296
0.069716 0.241845 -0.155195
-0.010878 0.196502 -0.094754
0.236063 0.448193 -0.017970
-0.139492 0.063633 0.005893
-0.113694 0.126050 -0.053403
0.012553 0.232412 -0.042960
-0.071277 -0.236787 0.226104
-0.008725 0.270553 -0.065160
0.067973 0.116130 0.184298
0.104040 0.426376 -0.085335
-0.027247 0.000459 -0.245050
-0.065338 -0.153762 0.231731
0.061198 -0.094400 0.283968
-0.002395 0.142066 0.121862
0.094096 0.190445 -0.135628
0.107716 0.268826 -0.030703
0.103754 0.189629 0.049266
0.140561 0.360999 -0.117285
0.211087 0.352113 0.051696
-0.064627 -0.100023 0.155302
0.041578 0.173887 0.049194
0.095707 0.361090 -0.050970
-0.033160 -0.001036 -0.242933
0.236005 0.456747 0.023292
0.087628 0.348912 -0.085681
0.110001 0.209803 -0.135372
-0.039930 -0.032042 0.189738
-0.148311 -0.109517 -0.257949
-0.016906 0.057921 -0.218568
0.017564 0.113434 0.107505
0.150125 0.340986 0.011195
-0.144685 -0.118639 0.090732
0.233668 0.396843 0.030649
-0.197082 -0.244378 0.150554
0.143393 0.456680 -0.139943
0.038157 0.259439 -0.080831
0.157830 0.440409 -0.062161
0.088208 0.406672 -0.095887
0.063920 0.191030 0.079800
-0.113200 -0.104023 0.117978
0.017013 0.263757 0.030525
-0.047125 0.019410 -0.224948
-0.052729 -0.082265 0.138431
0.089588 -0.051506 0.238496
0.139707 0.263921 0.081180
-0.049458 -0.438219 0.225025
0.186491 0.420415 -0.147561
-0.032300 0.177920 -0.001051
-0.175236 -0.182778 0.134296
0.045786 0.051935 0.219268
0.111842 0.163042 0.115725
-0.149050 -0.070223 -0.260789
0.171450 0.351315 0.012250
-0.194843 -0.097381 0.029817
0.038036 0.198344 -0.000186
0.094287 0.190461 0.064317
-0.087363 -0.013963 -0.288260
0.122599 0.317243 -0.074002
0.109894 0.363366 -0.167473
-0.162549 -0.152385 -0.260939
-0.038779 0.103527 0.059126
-0.067114 0.113250 -0.039340
0.114052 0.271687 0.064825
-0.228564 -0.096934 0.008576
0.115555 0.319186 -0.141227
-0.026284 0.066734 -0.213381
-0.113862 0.132726 -0.027645
0.098798 0.107109 0.181858
0.043696 0.207046 0.040247
-0.113931 0.094970 -0.006950
0.132257 0.361029 -0.140416
-0.164314 -0.457136 0.127907
0.104851 0.291622 -0.088027
0.214102 0.378619 0.007059
0.166557 0.365079 -0.015111
-0.000708 -0.004463 0.136142
0.020793 0.110252 -0.199158
-0.134025 -0.124025 -0.266193
-0.207868 -0.295775 0.143784
-0.201591 -0.360818 0.121824
-0.070185 0.135679 0.064790
-0.097165 -0.002567 0.135239
-0.007422 0.188521 0.055478
0.137534 0.445319 -0.143341
-0.243166 -0.191064 -0.008680
-0.092704 -0.051543 -0.288199
-0.095156 -0.279524 0.219897
0.068269 0.148565 -0.156260
0.065934 0.237181 -0.084336
0.058251 0.244093 0.046715
-0.181490 -0.143865 0.140268
-0.099128 -0.214979 0.206403
-0.203276 -0.164112 0.125897
-0.194291 -0.262447 0.160575
0.124631 0.320714 -0.049040
-0.017957 0.072585 0.155491
0.011590 0.115922 0.128589
-0.019358 0.238347 0.021404
0.120813 0.314513 0.035075
0.048409 0.296601 -0.090922
-0.233522 -0.403143 -0.012778
-0.143871 -0.098103 -0.290879
-0.195287 -0.324580 0.150488
0.016454 0.236357 0.043748
0.148182 0.379210 -0.154378
-0.067113 -0.301966 0.238624
-0.040472 0.244514 -0.052995
-0.202181 -0.169155 -0.275370
0.005817 -0.026516 0.142918
0.122781 0.328525 -0.043367
-0.061761 -0.258598 0.226992
-0.136529 0.017973 0.086951
-0.036157 0.110881 0.061317
0.087509 0.193472 0.129704
0.090751 -0.251230 0.315274
-0.112711 0.136102 -0.039918
0.047269 0.196802 0.033428
0.051228 0.257066 0.039052
0.205581 0.263743 0.070287
-0.111281 0.122055 -0.014592
0.186669 0.365232 0.056288
0.217825 0.403684 0.040837
-0.096608 -0.047911 -0.288748
0.034312 0.137224 -0.169152
-0.001878 0.041013 0.136092
0.065975 0.194896 0.076940
0.110781 0.319948 -0.058349
0.076313 0.028624 0.232786
0.133934 0.323814 -0.136565
-0.034794 -0.105522 0.199980
0.142462 0.449270 -0.090791
0.108326 0.178541 0.036299
-0.005355 0.233302 -0.088087
-0.218986 -0.090942 0.019878
0.043164 -0.019761 0.234963
0.149287 0.321553 -0.101380
-0.222946 -0.215651 0.128033
0.170429 0.407127 0.046835
0.081367 0.335481 -0.079990
-0.130793 -0.049101 -0.267817
0.082942 0.186104 0.130202
-0.124375 -0.108344 0.107198
0.073411 -0.064430 0.229338
0.075192 0.382487 -0.080455
0.107589 0.193892 0.053245
-0.068632 0.090905 0.093165
-0.020984 0.022824 0.179354
0.002529 0.132913 0.129183
0.114245 0.312400 0.043767
0.231408 0.460826 0.027152
-0.008231 0.198837 0.058364
0.010450 0.078522 -0.249741
-0.142687 0.032142 0.011362
0.078235 0.354989 -0.140329
-0.027347 -0.039327 0.133238
0.169706 0.337804 0.019769
-0.229433 -0.153867 -0.019308
0.202844 0.439907 0.017405
-0.017739 0.226025 -0.102265
-0.013417 -0.070914 0.199374
0.077866 0.365577 -0.129534
0.012110 0.181022 -0.184278
0.101680 0.280888 0.065417
0.010902 0.117217 -0.253712
-0.138462 -0.024884 0.077795
0.077430 0.226729 -0.006042
0.017075 0.230180 -0.093924
0.115260 0.364325 -0.168451
0.049280 0.208543 -0.180698
-0.068625 0.119842 -0.051098
0.130324 0.341541 -0.164203
0.188460 0.367754 0.056398
-0.029856 0.026687 -0.281055
0.259492 0.428692 0.018951
-0.114166 0.131109 -0.051198
0.070969 0.250366 -0.117332
0.064370 0.297980 -0.043993
-0.255914 -0.279785 0.019213
0.163051 0.400980 -0.166447
0.048959 0.089875 0.188493
-0.109170 0.005770 0.138724
0.161642 0.374824 -0.150978
-0.072565 0.159898 -0.026811
-0.076900 -0.051975 -0.257620
0.123456 0.374113 -0.119261
-0.173393 -0.173135 -0.294360
0.082365 0.338401 -0.155459
0.147254 0.319438 -0.082022
0.193809 0.431745 -0.118165
0.066062 0.193107 0.045985
-0.032355 0.204232 -0.027028
0.262659 0.423657 0.009510
-0.051112 -0.401590 0.211276
0.230869 0.413455 -0.014277
-0.053949 0.151830 -0.027598
-0.016131 0.098134 0.140642
-0.052683 0.173192 0.048471
-0.240169 -0.246862 0.006792
-0.048238 -0.115493 0.214851
-0.016432 0.167283 -0.074162
-0.106998 0.059438 -0.018148
0.232942 0.468697 0.017901
0.126427 0.334662 0.012648
-0.015018 -0.085444 0.189967
0.211791 0.455307 0.002256
0.113152 0.290548 -0.004842
-0.087662 -0.137524 0.187888
-0.170048 -0.114967 0.081707
0.061247 0.325590 -0.060768
0.121382 0.336856 -0.163663
0.144874 0.334065 -0.056975
0.085709 0.079651 0.204701
-0.233120 -0.162891 -0.014184
-0.161941 -0.067929 -0.016518
0.039423 0.256719 -0.091282
0.162885 0.313375 0.006220
0.108977 0.161822 0.112038
-0.070209 -0.049239 -0.273200
-0.078000 0.027249 0.068244
0.067086 0.221260 0.034980
0.255996 0.397509 0.015805
0.083805 -0.206556 0.297182
0.124527 0.434869 -0.092547
-0.117301 0.045709 0.089011
-0.017843 0.017534 -0.232676
0.038603 0.261173 -0.044547
0.205522 0.433816 -0.011069
0.097887 0.279604 0.000054
-0.164348 -0.169448 -0.291553
0.229613 0.399603 0.034474
0.096773 0.258738 -0.084634
0.089201 0.156835 -0.173148
-0.138264 0.014951 0.089750
-0.057168 0.002177 -0.278225
0.107648 0.292755 -0.076832
0.090059 0.315389 -0.035728
-0.229292 -0.416085 0.004821
0.103611 0.191206 -0.112484
0.176471 0.392795 -0.027003
0.093455 0.256574 -0.081965
0.039641 0.150740 -0.236543
0.170170 0.432615 0.042633
0.107601 0.206873 -0.136150
0.125520 0.203730 0.132763
0.108653 0.431919 -0.087176
-0.267637 -0.312977 -0.003355
-0.130454 0.017351 -0.026613
0.099769 0.275094 -0.096912
0.029603 0.212463 0.023545
-0.130180 -0.018120 0.140776
0.052213 0.224675 0.015485
0.023881 0.250642 0.041460
-0.059921 -0.055080 0.147983
-0.100820 0.112141 -0.054789
-0.002555 0.045910 -0.241346
0.027166 0.177075 -0.222935
-0.185457 -0.255721 0.151892
0.067620 0.261003 -0.065058
0.026474 0.214600 0.052118
-0.057942 -0.139116 0.226468
-0.097615 -0.178455 0.226714
-0.122218 -0.100803 0.139086
0.050331 0.257236 -0.097083
0.156556 0.407871 0.008912
-0.104537 0.069610 0.060970
-0.020069 0.233373 -0.010091
0.115181 0.303080 -0.039883
0.206836 0.312096 0.044668
0.194915 0.449069 0.021708
-0.005478 0.220359 -0.108802
0.086189 0.180068 -0.191764
0.054724 0.246644 -0.069964
-0.073580 0.133170 0.048261
-0.016874 0.139212 0.047428
-0.227248 -0.411619 -0.008315
0.080603 0.224049 -0.037767
-0.024037 0.089605 -0.263918
0.225909 0.451928 0.036342
-0.118036 -0.062875 0.132256
-0.022507 0.207356 0.052215
0.123218 0.250765 0.058777
0.091512 0.357458 -0.067435
0.180796 0.377657 0.056030
0.027137 -0.015358 0.209146
-0.010547 0.252079 -0.049762
-0.065138 -0.033917 -0.282907
0.045346 0.160501 -0.232595
-0.167292 -0.082830 0.077313
0.065389 0.175235 -0.119819
0.190016 0.389056 -0.073900
0.174807 0.451154 -0.065931
0.077365 0.319559 -0.048096
0.083662 0.308152 -0.109320
-0.160959 -0.441216 0.150990
0.147985 0.318916 -0.091232
-0.223655 -0.265345 0.108896
-0.109148 0.063361 0.077920
0.197194 0.240746 0.021386
0.155836 0.404628 -0.168902
0.082206 0.018036 0.227890
0.176561 0.462687 -0.064045
0.165035 0.318167 0.026004
-0.092064 -0.013834 0.070399
0.160556 0.407508 -0.166644
-0.119153 -0.084754 0.142165
0.106455 0.187252 0.143233
-0.258269 -0.339689 0.005301
0.116620 0.194355 0.024399
0.012619 0.215992 -0.137443
-0.053133 0.231516 -0.047674
0.073868 0.309759 -0.140826
-0.095405 0.140830 -0.021180
-0.032783 0.146770 0.015993
0.145402 0.320772 -0.104332
0.053469 0.209924 -0.094508
-0.188817 -0.193526 -0.299026
0.042137 -0.145030 0.277160
-0.067317 0.076547 -0.253315
0.129712 0.180284 0.023633
0.052953 0.020389 0.242617
0.175184 0.354016 0.040121
-0.053360 -0.136824 0.222441
-0.087478 0.168577 -0.039977
-0.182084 -0.165290 0.100236
-0.189622 -0.184093 0.109238
-0.050672 -0.008450 0.137679
-0.075685 0.097335 0.088580
0.050971 0.281772 -0.070686
-0.273026 -0.220238 -0.009540
0.173424 0.313657 -0.015582
0.082030 0.190282 -0.205562
-0.235700 -0.212209 0.023222
-0.009796 0.176716 -0.032507
0.022589 0.126045 0.107240
-0.147403 -0.113820 0.141408
-0.009482 -0.000167 0.185042
-0.246387 -0.291550 -0.005041
-0.182034 -0.183007 0.150513
0.072616 0.342639 -0.136162
-0.141793 -0.120276 0.136736
0.098975 0.339837 -0.163166
0.160126 0.463119 -0.088765
-0.196104 -0.372551 0.135255
0.009014 0.266047 -0.041186
0.188101 0.392180 -0.008161
-0.173953 -0.166421 0.119287
-0.150400 0.066357 -0.001961
0.200566 0.252654 0.070647
0.012372 0.272323 -0.010618
0.075526 0.163658 0.132280
-0.070357 0.162274 -0.027130
0.129425 0.194107 0.049768
-0.008629 0.137699 -0.199042
-0.110964 0.051761 -0.020177
0.156206 0.292649 0.022999
0.036837 0.151250 -0.236566
0.176806 0.329479 -0.085980
-0.149789 -0.010521 0.012387
0.061461 -0.086166 0.280252
0.112768 0.364490 -0.019120
-0.034135 0.138911 0.065781
0.112370 0.301379 -0.029502
-0.166335 -0.107156 -0.264216
-0.092005 -0.188417 0.199276
0.193230 0.411560 -0.000497
0.115926 0.285038 -0.019974
0.074722 -0.314894 0.311210
0.103082 0.186129 -0.114923
0.191171 0.402998 -0.083900
0.197192 0.435121 0.037478
-0.082143 -0.162476 0.193113
0.184211 0.433714 0.025071
-0.068394 -0.241150 0.239609
-0.016305 0.022148 0.179670
0.096132 0.130583 0.174925
-0.023144 0.158953 0.060234
0.073787 0.274385 0.054864
0.244506 0.395830 0.039388
0.001208 0.158908 0.082187
-0.170384 -0.094848 -0.028804
-0.174959 0.014401 -0.043945
-0.031834 0.083035 0.135607
-0.158641 -0.476663 0.134401
-0.153587 -0.041051 0.106784
0.094114 0.258794 0.007702
-0.037226 0.046999 0.155620
-0.245612 -0.250767 -0.011132
0.179756 0.333782 0.045124
0.037386 0.183800 0.038286
0.142549 0.390749 -0.172584
0.162500 0.478370 -0.141320
0.026925 0.220163 -0.013442
0.129046 0.260714 0.066250
-0.111135 0.012047 0.060431
0.145291 0.459806 -0.080077
-0.188574 -0.132465 0.098363
-0.179630 -0.000333 -0.048384
-0.062732 0.086496 -0.235606
0.082042 0.140351 -0.193837
0.083460 0.271378 0.010236
-0.252374 -0.172929 -0.019809
0.168728 0.476375 -0.078428
0.214951 0.437874 -0.070879
-0.083477 0.062876 -0.242978
0.084872 -0.032741 0.256682
-0.268320 -0.307636 -0.004017
0.055420 0.045921 0.229056
0.067475 -0.246520 0.297135
-0.179234 -0.379100 0.123076
0.066311 -0.119220 0.293351
0.081783 0.273383 -0.059467
0.206179 0.465269 -0.067103
-0.062914 0.113333 0.035696
0.026640 0.220592 -0.031857
-0.080815 0.124346 0.061424
0.136277 0.228890 0.032179
-0.195364 -0.218776 0.121085
0.048931 0.235561 -0.055587
-0.271536 -0.277794 -0.008179
0.170293 0.390676 0.049529
-0.165103 -0.073490 0.010650
0.073177 0.162990 0.121118
0.159656 0.264725 0.049512
0.076540 0.336084 -0.060174
0.083662 -0.173268 0.299615
-0.065962 0.002428 -0.279515
0.165846 0.454796 -0.060351
-0.162897 -0.473976 0.149962
-0.021099 -0.049071 0.191882
-0.133789 0.012673 0.073528
-0.150373 -0.133791 -0.289451
-0.196180 -0.257739 0.112675
0.156824 0.347621 -0.022059
0.061309 0.263912 -0.116438
0.047961 0.214076 -0.073997
0.010117 0.101051 -0.204386
0.075433 0.214545 -0.033086
0.138395 0.198515 0.126320
0.032384 0.135225 -0.172109
-0.134138 -0.040670 -0.009210
-0.220845 -0.165062 0.022406
0.008122 0.165009 0.010892
-0.089406 -0.298817 0.214380
-0.194453 -0.030273 0.028415
0.164834 0.404334 0.036314
0.193221 0.288942 0.043327
-0.176314 -0.335200 0.138105
-0.025850 -0.075037 0.205225
-0.090472 0.081677 0.091034
-0.110589 -0.097588 -0.287835
0.102698 0.387817 -0.154848
0.061488 0.238634 -0.074138
-0.110844 -0.109520 -0.282377
0.077889 0.350520 -0.143331
-0.016746 0.086868 -0.265638
-0.186876 -0.291643 0.122607
0.026079 0.220027 -0.099644
0.000359 0.182693 -0.010956
-0.174755 0.039408 -0.011345
-0.183411 -0.365599 0.153949
0.055333 0.161057 -0.229726
0.026555 0.256239 0.044507
0.110906 0.227820 0.022340
0.166606 0.305247 -0.003280
-0.050516 -0.378604 0.207455
-0.037613 0.159996 0.065594
-0.004788 0.138225 0.093356
-0.093442 0.023713 -0.250021
-0.196562 -0.269163 0.159553
0.164473 0.474779 -0.101533
0.004909 0.212067 -0.102399
-0.110427 -0.209115 0.208539
-0.195086 -0.159471 0.096113
-0.028727 0.013239 -0.227372
-0.147335 0.025429 -0.038031
0.046150 -0.115980 0.284189
0.180134 0.482957 -0.090530
0.100949 0.273431 -0.091739
0.153135 0.461036 -0.095664
0.071377 -0.034004 0.260618
-0.026794 0.071440 0.120588
0.154698 0.287121 0.024088
0.002132 0.258990 -0.008485
0.143488 0.465751 -0.127234
-0.177296 -0.101596 -0.032221
-0.174732 -0.338122 0.139931
0.090017 -0.304838 0.309192
0.055531 0.218353 -0.097436
-0.202601 -0.090559 -0.045237
-0.124298 -0.105170 0.136704
-0.153111 -0.037840 0.101478
-0.132613 -0.040242 0.139720
0.083627 -0.258578 0.302667
-0.056948 0.133349 0.028536
0.002115 0.171239 -0.004053
0.136534 0.426906 -0.045257
0.171902 0.370061 0.021829
0.084668 -0.290115 0.301611
0.061536 0.292998 -0.113965
0.131309 0.329904 -0.079143
-0.173301 0.030630 0.002644
0.075265 0.336329 -0.068513
0.102306 0.423696 -0.097819
-0.109655 -0.062453 -0.290324
0.065884 -0.286570 0.313933
0.082389 -0.242544 0.321465
-0.144424 -0.089488 -0.246772
-0.230782 -0.157466 -0.017029
0.092196 0.283505 0.065079
0.183652 0.392907 0.000682
-0.076527 -0.311917 0.241750
0.110197 0.324286 -0.101031
-0.173305 0.042209 -0.032313
0.242236 0.441345 0.035639
0.061046 0.279650 -0.116824
0.005182 0.078768 -0.258084
-0.029435 0.236618 -0.094493
-0.104086 0.142948 -0.026478
-0.265268 -0.239111 -0.012900
-0.003880 0.146961 0.091137
-0.089895 0.033033 -0.264832
0.029385 0.025419 0.193272
0.110739 0.205945 0.025256
0.087055 0.247547 -0.002340
0.200768 0.372248 0.006638
-0.034859 0.225445 0.011090
0.068449 0.215703 -0.038596
-0.018591 0.189184 -0.009901
0.123516 0.394389 -0.165433
0.068216 0.208104 -0.032404
-0.001115 0.217699 -0.105419
-0.126395 -0.078425 -0.252704
0.241101 0.407495 0.042752
0.087881 -0.247008 0.319252
-0.064875 -0.001652 -0.233333
-0.033486 0.074105 0.140461
-0.129246 -0.054339 0.070870
0.098915 0.316391 -0.152024
0.081816 0.241715 0.009877
0.083506 0.015133 0.226382
-0.046142 -0.104777 0.169442
0.117694 0.224637 0.105602
0.136707 0.364629 -0.170652
0.107074 0.337052 -0.004664
0.138071 0.415934 -0.161284
0.048675 0.135284 -0.173516
0.240170 0.435266 -0.012551
-0.031797 0.215815 -0.106537
-0.179968 -0.132462 0.088344
-0.061607 -0.252859 0.239932
0.047441 0.167997 0.091697
0.258707 0.441964 0.032292
0.046803 -0.004441 0.185175
0.074608 0.307013 -0.043979
0.112845 0.198269 -0.122641
0.008585 0.223644 -0.012203
0.134278 0.460983 -0.102457
0.226174 0.430089 0.037792
0.025017 0.149093 -0.237083
-0.118539 -0.096181 0.141086
-0.193691 -0.187772 -0.301794
0.129113 0.302159 0.024801
0.198263 0.429998 0.045925
0.086726 0.101103 0.165131
-0.019023 0.155611 0.008187
-0.240867 -0.349770 0.013169
0.188864 0.427066 -0.056619
-0.053515 0.150650 -0.071605
0.087018 0.182146 0.073230
-0.163113 -0.444068 0.151485
-0.097990 -0.270177 0.226976
0.015996 0.189295 0.099751
0.084324 0.185720 -0.107062
-0.085502 0.040619 0.116157
0.024426 0.255389 0.042889
0.182531 0.243206 0.045072
-0.180153 -0.282061 0.153867
0.062231 0.248171 -0.066399
-0.077975 -0.223705 0.248267
0.085931 0.003203 0.202588
-0.076636 0.005719 0.079231
0.223640 0.393511 0.051531
0.148818 0.397041 -0.013661
-0.214478 -0.187966 -0.282979
-0.262666 -0.276224 0.016655
0.093261 0.402551 -0.121249
0.052288 -0.123053 0.269626
-0.197083 -0.168785 0.096416
0.155523 0.474957 -0.134298
0.204980 0.428952 -0.114213
-0.120202 0.125722 -0.039156
0.071542 -0.115168 0.288720
-0.005696 0.112645 0.101320
-0.044078 -0.011368 -0.251029
0.120371 0.424619 -0.075132
-0.035304 -0.023233 0.189345
0.109886 0.333325 0.002082
-0.003861 0.219059 0.054531
0.076490 -0.189219 0.314041
-0.109497 -0.083468 0.093521
-0.094828 0.018479 0.129489
0.110400 0.185829 0.047662
0.024445 0.186261 0.104839
0.056619 -0.034940 0.254705
0.128036 0.316725 0.030259
-0.142705 -0.095692 -0.249891
-0.036749 0.208607 0.030474
-0.242277 -0.148641 0.015385
-0.088110 -0.246245 0.206311
-0.112065 -0.059262 0.084100
0.079436 -0.077004 0.269043
0.086026 0.146617 0.165833
0.033182 0.149384 0.099815
-0.014435 -0.040447 0.139945
0.189307 0.260988 0.026810
-0.090005 0.030816 -0.234408
-0.228020 -0.379197 0.006917
-0.076207 -0.234458 0.244973
0.072646 0.324954 -0.093463
0.159532 0.258760 0.070974
0.001680 0.228862 -0.029572
0.129360 0.278564 0.080265
-0.025270 0.054993 0.123825
0.072202 0.319796 -0.049140
0.104893 0.379588 -0.026751
-0.053164 -0.055823 0.143318
0.209433 0.455688 0.010989
-0.047950 0.192743 0.012343
-0.063976 -0.014440 -0.286468
0.120203 0.224568 0.107251
0.077380 0.199365 0.111888
-0.004963 0.001942 0.181956
-0.204606 -0.070604 0.017986
-0.186265 -0.109908 -0.022430
0.056105 -0.237389 0.299774
-0.045726 -0.121475 0.205159
0.142278 0.420035 -0.048500
-0.237723 -0.317229 0.005618
0.232581 0.389972 0.047398
0.046145 -0.004011 0.240796
-0.117653 -0.089790 -0.259889
-0.231839 -0.147861 0.023689
-0.203852 -0.004372 -0.008766
0.177147 0.487483 -0.084331
0.160404 0.325592 0.030816
-0.178346 -0.424504 0.121557
0.038935 -0.117811 0.265158
-0.200730 -0.001734 -0.001861
-0.000039 0.056328 0.154666
-0.081733 -0.332463 0.227131
0.164394 0.358581 -0.072647
0.148381 0.472798 -0.098146
0.061818 0.301601 -0.037322
0.050164 0.212473 -0.095941
0.072514 0.304637 -0.045019
-0.099271 0.045750 0.110725
0.057388 0.215072 0.094595
0.070749 -0.272012 0.299774
-0.174098 -0.085027 0.095873
0.083807 0.296798 -0.052649
0.136090 0.222818 0.108278
0.170784 0.338665 -0.026903
-0.191011 -0.057284 -0.041793
0.186643 0.237518 0.030824
-0.105679 -0.090257 0.134115
-0.195036 -0.086008 0.029813
-0.233850 -0.334283 0.002726
-0.088098 0.163532 -0.032273
0.070626 0.294215 0.008662
0.136298 0.257567 0.053712
-0.163372 -0.141293 -0.256239
-0.142369 -0.119548 0.102707
-0.064493 0.041254 -0.276635
0.123306 0.188350 0.141474
0.121393 0.215986 0.119168
-0.065248 0.200575 -0.042500
-0.055747 -0.022453 0.158651
0.093889 -0.043247 0.243645
0.188166 0.408707 -0.123324
-0.113224 0.049940 -0.016657
0.039691 0.277402 -0.038300
0.063132 0.067244 0.176578
-0.077398 -0.205301 0.248012
0.106811 0.304886 -0.037645
-0.052694 -0.134227 0.210064
0.024340 0.209950 -0.077473
-0.009837 -0.012837 0.128568
0.218504 0.446579 0.031810
-0.187276 -0.171840 -0.270902
0.196350 0.421273 -0.048067
-0.179071 -0.290675 0.138585
0.158263 0.261161 0.056169
0.124741 0.316205 -0.051048
-0.176444 -0.070183 0.023196
0.044492 0.015993 0.242728
-0.112304 0.051673 0.092800
-0.043146 0.050530 -0.278926
-0.080380 -0.020411 -0.289640
-0.070219 0.049753 -0.272845
-0.218106 -0.093168 -0.039074
-0.057660 -0.040499 -0.261810
-0.087627 0.005217 -0.223976
-0.055746 -0.048180 0.147478
0.183292 0.444214 -0.163212
0.263435 0.431695 -0.013128
-0.075105 0.053035 0.105440
-0.178889 -0.184859 -0.290135
0.059900 -0.262943 0.309859
-0.014015 0.065615 -0.270276
0.067864 0.336569 -0.111066
0.037481 0.160175 0.074794
0.175686 0.400116 0.002160
0.162535 0.370082 -0.146137
0.020323 0.022666 0.226895
0.162343 0.457119 -0.155980
0.064860 -0.004853 0.190037
-0.129384 -0.119070 -0.261786
-0.016587 0.076251 0.115956
0.099117 0.158229 0.107396
0.117675 0.348901 -0.065610
0.082605 0.325029 -0.154972
-0.049011 0.111117 0.077800
0.070832 0.148261 0.143803
-0.175972 -0.371225 0.155211
0.046069 0.168369 0.062730
0.084813 0.301911 -0.050529
0.141299 0.350514 -0.163745
-0.069455 0.138044 0.040874
0.042710 0.142158 -0.239620
-0.207129 -0.176640 0.129441
0.072183 0.264469 -0.051569
0.072530 0.179934 -0.218671
-0.031519 0.005781 -0.232082
0.175082 0.357105 0.039845
0.035436 0.045952 0.214556
0.040750 -0.066322 0.227301
-0.029207 0.121245 -0.221268
0.021200 0.186496 -0.131495
-0.207076 -0.182434 0.135339
-0.057833 -0.153768 0.222470
0.095838 0.280413 -0.048691
-0.093432 -0.000480 0.131665
0.170017 0.475826 -0.135679
0.207388 0.423670 -0.099537
0.089068 0.316295 -0.115868
-0.146098 -0.043298 -0.025183
0.012672 0.192255 -0.133715
0.229029 0.459495 0.028946
0.230666 0.365624 0.027939
0.087392 0.188253 -0.138832
0.086299 0.051636 0.210181
0.093214 0.213920 -0.152743
-0.036613 0.205078 -0.028028
-0.128663 -0.046883 -0.269523
-0.268528 -0.318922 -0.010950
0.219408 0.424230 0.051854
0.004932 0.076975 0.127569
-0.034581 0.158085 0.065811
0.078314 0.158434 0.145329
-0.232746 -0.182344 0.008094
0.129575 0.179212 0.134596
0.090972 0.163497 -0.194930
-0.151748 -0.061504 -0.012931
-0.167452 -0.063181 -0.028687
0.177536 0.424608 -0.143655
-0.157375 -0.085226 0.136423
-0.135424 -0.056187 -0.258949
0.088026 0.185845 0.135600
-0.081380 -0.031001 -0.234636
-0.153138 -0.128439 0.100789
0.042195 0.198501 -0.213208
0.025595 0.026892 0.228757
0.007493 0.197578 -0.099234
0.098302 0.205986 0.059890
0.183068 0.393595 0.047028
0.213151 0.456686 0.005154
0.106918 0.195224 0.139313
0.016143 0.131491 0.121665
0.159493 0.439179 -0.059787
-0.049961 0.143561 -0.063657
0.245336 0.434529 -0.013774
0.138306 0.221599 0.099300
0.199735 0.268475 0.026149
0.119397 0.171667 0.108440
0.168617 0.337810 -0.104140
-0.005723 0.143663 -0.229137
-0.070586 0.026969 0.075054
-0.000258 0.180682 -0.032705
0.050047 0.305086 -0.084357
0.169784 0.303376 0.033512
0.159769 0.361856 -0.109768
-0.116633 -0.082160 0.139620
0.089356 0.188521 0.134930
-0.098825 -0.266412 0.219115
-0.163878 -0.421297 0.127376
-0.077355 0.148405 -0.067631
0.066201 -0.268985 0.297922
-0.190167 -0.308218 0.154168
-0.102678 0.000904 -0.268351
-0.175128 -0.262218 0.141697
0.165960 0.294744 0.064842
0.044510 0.252269 -0.079954
0.114402 0.421309 -0.137883
0.063865 0.274313 0.025592
-0.116050 -0.032684 0.057916
0.167272 0.368930 -0.133080
0.081436 0.058161 0.187250
-0.048641 -0.053982 0.204994
0.161884 0.444089 -0.050692
-0.153943 -0.056548 -0.025512
-0.268968 -0.258134 0.015358
0.132458 0.418651 -0.146291
0.138242 0.463478 -0.119464
0.097971 0.102708 0.173305
-0.020708 0.128231 -0.211713
0.078451 0.157506 0.112438
-0.176569 -0.190140 0.151973
-0.005132 0.101034 0.143515
-0.020087 -0.072400 0.154429
0.009065 0.087987 -0.213509
0.077189 0.248309 0.083381
0.111699 0.247652 0.082819
-0.042461 0.029267 -0.283943
0.087773 0.180978 -0.128631
-0.159928 -0.134810 -0.257196
0.106760 0.355285 -0.055950
-0.223091 -0.080901 0.002549
-0.124825 -0.066391 -0.249611
0.158389 0.287878 0.078072
0.024856 0.175763 -0.159836
-0.225497 -0.073873 -0.023923
0.098926 0.382830 -0.154441
0.010272 0.103870 -0.257371
-0.252916 -0.153328 0.001624
0.070392 0.004763 0.239235
0.195063 0.398381 -0.062269
-0.265709 -0.314589 0.001998
0.191668 0.369544 -0.078585
0.113037 0.237979 0.021347
-0.196191 -0.163045 0.096591
-0.108637 -0.099677 0.117433
-0.031439 -0.088333 0.204747
0.106767 0.258684 0.083399
-0.054463 0.225637 -0.045969
-0.078592 0.047244 -0.224243
-0.008012 0.227049 -0.095556
0.151746 0.357401 -0.012741
-0.211861 -0.121072 -0.028664
0.218756 0.438601 -0.098290
0.170208 0.318903 0.030807
0.176161 0.392166 -0.006258
0.021158 0.198884 -0.030613
-0.011750 0.144375 0.030120
0.165867 0.398522 -0.023217
-0.006842 0.030309 -0.247905
-0.146799 -0.109249 0.072456
0.168638 0.385590 -0.116315
-0.123123 0.089241 -0.049060
-0.050259 0.130651 0.027144
0.081624 0.168940 -0.212542
0.088491 0.108012 0.162405
-0.153391 -0.410500 0.147235
-0.003963 0.189179 -0.012787
0.109776 0.143321 0.163280
0.054405 -0.173378 0.307379
0.013019 0.107194 0.120375
-0.087581 -0.065078 -0.268256
0.168198 0.296982 0.045039
0.001630 0.075092 0.149915
0.087217 0.094937 0.198229
-0.092113 0.095627 0.072778
-0.157945 -0.040999 -0.045634
-0.096744 -0.230378 0.244409
0.212639 0.398123 0.041887
-0.227612 -0.084313 -0.008318
0.035232 0.271264 0.030129
0.041317 -0.071538 0.231647
0.123883 0.318543 0.013011
0.175455 0.440730 -0.045248
0.209890 0.428343 -0.002655
0.106058 0.197714 0.137995
-0.015434 0.206616 -0.013166
0.218064 0.392974 -0.003149
0.160468 0.288440 0.026305
0.053147 0.243579 -0.061459
-0.071870 0.064004 -0.262671
-0.076272 -0.049316 -0.253964
0.166865 0.318923 -0.068187
-0.001435 0.178096 -0.070325
0.059989 0.159603 -0.228220
0.082888 0.201562 -0.156255
0.133649 0.283021 0.082749
-0.137755 -0.151650 -0.281831
0.014920 0.270370 0.011331
0.113187 0.417652 -0.139231
-0.240418 -0.231966 0.006344
-0.055126 -0.103896 0.153674
0.123545 0.411318 -0.035072
0.050144 -0.034632 0.207219
0.053094 -0.069930 0.226818
0.169136 0.420718 -0.043268
0.132761 0.396730 -0.168574
0.029251 0.204927 -0.178096
0.187464 0.419892 -0.053190
0.036490 0.051703 0.194052
-0.071072 -0.063586 0.182579
0.017909 0.199949 0.092337
0.073392 0.278809 0.050824
-0.164394 -0.134845 -0.255241
-0.134264 -0.126873 -0.268562
-0.140014 0.085013 -0.047832
0.089056 0.001703 0.214779
-0.160344 -0.123838 -0.290334
0.025510 0.262764 -0.036568
-0.224315 -0.116756 -0.029306
0.145328 0.359187 -0.144819
-0.075297 0.183716 -0.040459
-0.164201 -0.146435 0.113354
0.162352 0.415696 0.033144
0.181112 0.403124 -0.105176
-0.004647 0.130478 0.128624
0.073235 0.194316 -0.159382
-0.057070 -0.332914 0.227354
0.225044 0.452900 -0.010902
-0.195289 -0.147150 0.130777
-0.082361 -0.024698 -0.289688
0.186239 0.437312 -0.160706
0.050251 0.066400 0.181216
0.033282 -0.055955 0.244771
-0.002124 0.215422 -0.092796
-0.067245 -0.369902 0.228148
0.256469 0.407410 0.030668
-0.124127 -0.106487 -0.260101
-0.042265 0.008354 0.180037
-0.106658 0.061997 0.090259
0.083705 0.344274 -0.093437
-0.062116 -0.130839 0.191251
-0.152386 -0.036444 0.117025
0.113782 0.425733 -0.091607
-0.148787 -0.135514 0.136450
0.178703 0.387706 -0.026680
0.031408 0.123211 -0.245568
0.139669 0.360892 -0.120703
-0.118307 -0.029207 0.143926
0.022579 0.209825 -0.028195
-0.006896 0.076383 0.153214
0.070510 0.329603 -0.142223
0.203309 0.305040 0.050393
-0.153139 -0.114260 -0.284693
-0.165329 -0.067244 0.093484
0.103749 0.182263 0.034461
-0.107566 0.053572 0.060678
0.146141 0.196197 0.025606
0.131669 0.272402 0.027693
-0.128730 0.076517 -0.045481
-0.204540 -0.134094 0.020833
-0.050184 0.180611 0.039653
0.067506 0.329361 -0.132332
0.183574 0.447888 -0.062783
-0.266746 -0.232190 -0.013128
-0.044828 0.080505 -0.212987
0.089643 0.254945 -0.119028
0.080043 -0.332324 0.314754
0.123815 0.209447 0.063780
0.248695 0.395085 0.034264
0.235879 0.418311 0.033551
0.212760 0.440005 0.005091
0.160740 0.382042 -0.137032
-0.052117 0.089381 -0.249446
-0.174766 0.037184 -0.035735
0.112048 0.178005 0.037806
0.055676 0.180906 -0.133892
-0.086490 -0.182722 0.239114
-0.047108 -0.390096 0.230871
0.244625 0.408847 0.040484
0.134030 0.422028 -0.144998
-0.042756 -0.005868 -0.247653
-0.042967 -0.389137 0.223902
0.039443 0.158231 0.095865
-0.202117 -0.118643 -0.025866
-0.047600 0.239332 -0.052052
0.221400 0.415404 -0.004641
-0.060205 -0.160161 0.225471
0.045605 -0.056742 0.209600
0.145932 0.270311 0.084083
0.189476 0.377002 0.026988
0.086415 0.128275 0.141080
0.163548 0.467600 -0.151619
0.229477 0.455173 0.015447
0.004153 0.175856 -0.007691
0.120707 0.247863 0.018288
-0.067341 -0.122174 0.221130
0.097113 0.252265 0.005825
-0.179257 -0.102480 0.096788
0.013744 0.252774 -0.029095
0.037365 0.109526 -0.224784
0.121282 0.391593 -0.068162
0.213245 0.437347 -0.112195
-0.202895 -0.165950 0.130004
0.092198 0.205111 0.036497
0.144145 0.330627 -0.063450
0.162749 0.426224 0.040881
-0.004830 -0.008034 0.132231
-0.055129 0.206158 -0.093109
-0.032508 0.241257 -0.084663
0.044026 -0.101335 0.254198
-0.057907 0.164224 0.050573
-0.233904 -0.250051 0.010188
0.062806 0.111694 0.185550
0.106427 0.321948 -0.054806
0.072669 0.185072 -0.145831
0.146433 0.324615 0.053163
-0.051214 0.178547 -0.027187
-0.186170 -0.069644 -0.039792
-0.024958 0.201290 0.054010
0.115732 0.314151 0.046129
-0.218843 -0.288711 0.119564
-0.054098 0.073789 0.067675
-0.102879 -0.198007 0.230081
-0.243670 -0.239828 0.012156
-0.146728 -0.121776 0.097383
0.086005 -0.041312 0.222853
-0.089301 -0.035145 -0.236128
-0.144961 -0.047529 -0.022224
0.159415 0.336767 -0.123492
0.002826 -0.035328 0.167099
0.107150 0.312158 -0.004600
0.190985 0.355625 0.017860
0.135633 0.299393 0.017303
-0.008801 0.115690 -0.199691
0.207312 0.308133 0.042539
0.106186 0.417551 -0.085149
-0.001419 0.211778 -0.104721
0.082781 0.010195 0.195989
0.112643 0.184265 0.046391
-0.163241 0.051959 -0.042053
0.052922 0.205144 -0.006081
0.125060 0.391903 -0.012761
-0.052547 0.134776 -0.035502
0.167688 0.364222 -0.128888
-0.236370 -0.347326 0.012272
-0.184243 -0.308775 0.130479
0.017100 0.174752 -0.004717
0.087897 -0.301075 0.305096
-0.038330 0.018826 0.127695
0.059566 -0.112698 0.291221
0.267254 0.419985 0.022961
-0.094802 0.119188 -0.056911
0.053208 0.182343 -0.135764
-0.182302 -0.143983 -0.256532
0.164014 0.357610 -0.076273
-0.137862 0.008944 0.079334
0.082706 0.300363 -0.051300
-0.059726 -0.040071 -0.252649
-0.057425 -0.052065 0.201007
-0.269482 -0.304124 -0.007817
0.233443 0.433832 0.033572
0.157804 0.456287 -0.153601
0.137826 0.445130 -0.089488
0.109406 0.424187 -0.067950
-0.138666 -0.121644 0.114082
0.211390 0.426200 -0.095208
0.151564 0.477866 -0.113803
0.029837 0.217888 -0.041756
-0.019833 0.168702 0.060141
0.063074 -0.244204 0.295998
0.040990 -0.127703 0.283046
0.149665 0.443126 -0.071686
0.194910 0.380269 -0.001316
0.165630 0.427586 -0.163134
-0.083560 -0.178933 0.201719
-0.064054 0.210072 -0.054020
0.149169 0.424305 -0.162196
0.135584 0.191476 0.103024
-0.019906 0.245102 0.007281
-0.056887 -0.121778 0.220852
-0.099687 -0.212402 0.241491
0.030202 0.040272 0.214353
0.059215 -0.054838 0.207000
-0.135658 -0.134760 -0.284518
-0.262154 -0.230061 0.022249
-0.061289 0.055770 -0.272210
-0.023326 -0.092478 0.176248
-0.169949 0.020603 0.016144
-0.184257 -0.133343 -0.278943
-0.222534 -0.237035 0.102742
0.041262 0.156135 0.083493
0.092747 -0.291648 0.319020
0.085756 0.299021 -0.051729
-0.025303 0.107739 0.123373
0.200626 0.360340 -0.033722
0.123639 0.387645 -0.073492
0.015852 0.239907 -0.113366
0.061312 0.009453 0.241447
0.271966 0.432636 0.012716
0.090761 -0.032031 0.231593
-0.238177 -0.373719 0.009386
0.224663 0.369381 0.049736
0.092841 0.320996 -0.156683
0.119099 0.281656 0.069949
0.138015 0.464397 -0.112971
0.163512 0.305952 0.024143
0.074027 -0.239453 0.300493
-0.017408 0.013794 -0.261563
-0.046639 0.232521 -0.086035
-0.250933 -0.362734 0.007544
-0.214155 -0.245482 0.102244
-0.056230 0.166959 0.050621
-0.200657 -0.320340 0.145710
0.088578 0.261930 -0.045974
0.004318 0.275673 -0.078520
-0.173454 -0.000664 0.026729
0.245546 0.430274 0.029358
-0.062532 0.188799 -0.084190
-0.016129 0.194440 -0.098264
0.094240 0.310726 -0.130709
0.048875 -0.032796 0.247487
-0.099964 -0.205806 0.205432
0.240674 0.428837 0.031383
0.097417 0.184838 0.040106
-0.084375 0.096081 -0.042392
-0.158648 -0.065706 0.004438
0.038592 0.114983 -0.237782
-0.108646 -0.219510 0.232618
0.047200 0.020786 0.242313
-0.188792 -0.392123 0.125024
0.111765 0.297982 0.015090
0.203373 0.302225 0.050893
0.200236 0.256018 0.071999
-0.239368 -0.203595 0.000018
-0.052660 -0.003520 -0.238334
-0.210803 -0.315104 0.125204
-0.040764 -0.095128 0.153822
-0.183134 -0.421291 0.139606
0.000222 0.181644 -0.111762
0.001789 0.057022 -0.259048
-0.044262 0.204973 0.019860
0.055633 0.094587 0.191995
0.016380 0.125101 -0.185343
0.061102 -0.052353 0.206863
0.048560 -0.145163 0.299338
-0.070698 -0.186596 0.225430
-0.086211 0.102503 -0.047727
-0.172811 -0.447460 0.123907
0.170297 0.371921 -0.128408
-0.173459 -0.037598 -0.054657
-0.046300 0.021094 0.136092
-0.122143 -0.082621 0.143438
0.090272 0.210767 -0.104212
-0.133272 0.017092 0.101414
-0.009408 0.116283 0.134234
-0.179084 -0.093084 -0.040654
0.066153 0.199769 0.088655
0.133586 0.306878 0.011992
0.200100 0.291627 0.036025
-0.030751 0.169581 0.002804
0.030560 0.188884 -0.095727
-0.207429 -0.330566 0.122442
0.165653 0.314459 0.004031
0.037715 0.229022 0.079493
-0.072748 -0.205320 0.245104
0.002548 0.065771 -0.229472
0.018629 0.207317 0.036130
-0.174272 -0.387859 0.127983
0.086874 0.291006 -0.113520
0.146993 0.202544 0.027953
-0.246459 -0.248953 -0.007941
0.010075 0.250725 -0.043258
0.194387 0.408046 -0.079269
-0.184675 -0.189887 -0.291343
0.083407 -0.013273 0.213122
0.170268 0.401453 -0.158238
0.194848 0.310536 0.036592
0.080041 0.171073 -0.163802
-0.080370 -0.274759 0.212611
-0.059250 0.076828 0.086014
0.199288 0.416730 -0.072206
-0.120256 -0.033578 0.142903
-0.176416 -0.316691 0.143611
-0.085213 -0.323126 0.211127
0.223319 0.451064 0.021046
-0.125787 -0.114988 0.124336
-0.196369 -0.151170 0.099894
0.071126 0.080394 0.172289
-0.178888 -0.119790 0.088781
0.030413 0.214878 0.093458
0.080624 0.346136 -0.151029
-0.020469 -0.082957 0.163415
0.037102 0.187411 -0.144410
-0.065020 0.163918 -0.076113
-0.101471 -0.075161 -0.288037
0.043665 0.062415 0.185496
0.082759 0.206150 0.055903
0.023341 0.220436 -0.012876
0.094664 0.180571 -0.119353
-0.066822 0.061997 0.094962
0.127259 0.406937 -0.161441
-0.007428 0.238769 0.033085
-0.180557 -0.054156 -0.045300
-0.047326 0.001214 -0.275518
0.060680 0.210739 -0.037551
0.130431 0.442588 -0.136618
0.015369 0.184917 -0.048218
0.071875 -0.047386 0.212383
0.094851 0.283923 -0.105911
0.070755 0.181074 -0.107175
-0.209533 -0.263870 0.098840
-0.166872 -0.020978 0.024310
-0.210628 -0.137049 -0.007692
0.139665 0.273704 -0.020139
-0.029947 -0.101429 0.193057
-0.122533 -0.112124 0.127393
-0.247306 -0.281692 0.021193
0.063014 0.047037 0.229273
0.050981 0.243068 0.031064
-0.004561 0.214741 -0.106806
-0.226454 -0.383265 0.004410
-0.079342 0.082309 0.098005
0.256811 0.409838 -0.002419
0.142834 0.397317 -0.033065
-0.229456 -0.405135 0.002555
-0.122064 0.016963 0.118236
-0.248648 -0.323043 0.018463
0.100920 0.115707 0.166475
-0.077432 0.125831 0.066466
0.195736 0.381716 0.005458
-0.252300 -0.302163 -0.011788
0.126110 0.412868 -0.034385
-0.087608 -0.277264 0.241263
-0.063435 0.052068 -0.214086
0.110603 0.331802 -0.094417
0.179750 0.349285 -0.094204
0.184137 0.396059 -0.114894
0.119413 0.371497 -0.144997
-0.093935 -0.277089 0.211315
0.160030 0.414322 -0.165224
0.115524 0.252619 0.013631
0.082225 0.068324 0.178402
-0.083601 -0.141886 0.182297
0.180291 0.438208 0.042737
0.034742 0.027460 0.189435
0.192916 0.279754 0.060357
-0.070117 -0.237504 0.236181
0.168713 0.466848 -0.070745
0.053578 0.095233 0.188871
-0.189775 -0.064829 0.019637
0.112943 0.162072 0.155137
0.111136 0.274838 -0.021215
0.087266 0.362974 -0.151998
-0.269365 -0.212593 0.011777
-0.107153 -0.202503 0.223931
-0.194718 -0.259350 0.110959
0.058291 -0.017436 0.197531
-0.227759 -0.391596 0.002247
-0.004905 -0.008577 0.179511
0.177663 0.362014 -0.053603
0.064705 -0.093753 0.283268
0.129776 0.401133 -0.155671
0.193866 0.400351 0.059914
-0.042427 0.203661 -0.029536
0.063170 -0.190136 0.316448
-0.254276 -0.330625 -0.016941
-0.052267 0.176454 0.041817
0.158882 0.423936 0.021367
0.187203 0.383176 0.057433
-0.046752 0.223192 -0.036699
-0.163419 0.057754 -0.036879
-0.175819 -0.053205 -0.045746
0.063676 0.057593 0.222058
0.016538 0.241303 -0.122971
0.160925 0.371306 -0.150355
-0.000071 0.218512 -0.091809
0.056168 0.322305 -0.069918
-0.268041 -0.184462 -0.003655
0.095756 0.309019 -0.057412
-0.156350 -0.161976 -0.269363
-0.240141 -0.228391 0.000778
0.107522 0.337277 -0.029778
0.152989 0.432773 -0.041884
0.099716 0.293081 0.001522
0.140515 0.331560 -0.066915
0.111039 0.330719 0.004694
0.000295 0.015610 0.156441
-0.156479 -0.107124 -0.256321
-0.113428 0.058555 -0.010615
0.080572 0.065198 0.178445
0.091596 0.141976 0.127002
-0.167816 0.049356 -0.036765
0.177247 0.378081 0.000224
-0.191309 -0.235213 0.128150
0.091786 0.180577 -0.123476
0.034671 0.268779 -0.037941
0.119512 0.431478 -0.106850
-0.133234 -0.125885 -0.285772
0.143844 0.302713 -0.054225
-0.001279 0.006514 0.138326
0.192794 0.377149 -0.031302
-0.064945 -0.084691 0.208415
0.195896 0.272845 0.034797
0.047944 -0.000515 0.183707
0.000310 0.182999 0.084431
0.071781 0.251779 0.076379
0.000700 0.110694 0.140078
-0.248505 -0.249786 -0.017772
-0.090962 -0.029521 0.076558
0.109845 0.159385 0.157939
-0.211234 -0.208018 0.096687
0.034294 -0.023424 0.214434
0.189258 0.398041 -0.103556
0.124400 0.288317 0.034243
-0.169988 -0.367995 0.155842
-0.241385 -0.419160 -0.009140
0.115803 0.214561 0.021303
0.202888 0.350971 -0.043747
-0.079514 -0.105364 0.205001
0.129731 0.369319 -0.114750
-0.106788 0.138674 -0.054945
-0.160946 -0.087131 0.070005
-0.016179 0.127165 -0.237966
-0.261105 -0.179730 0.005978
0.078421 -0.079145 0.273350
-0.067821 0.120301 0.036534
0.040625 -0.038867 0.242370
-0.052222 0.115912 0.080606
-0.146736 -0.124946 0.139106
-0.142395 -0.124632 0.134311
0.057029 -0.133002 0.276808
0.186113 0.438295 0.047010
-0.021939 0.071148 -0.212778
-0.236850 -0.196351 0.025093
0.009028 0.258742 -0.040101
-0.182875 -0.256588 0.141951
0.140950 0.318418 0.016376
0.047365 0.202225 -0.015639
0.090177 0.199621 0.065775
-0.063692 -0.047569 0.165787
0.059644 -0.213335 0.289941
-0.006001 0.034496 -0.260304
-0.135699 -0.121099 0.127787
-0.171927 -0.432268 0.148491
0.088465 0.019944 0.217266
0.135601 0.181580 0.024801
-0.098262 -0.165419 0.200534
0.190652 0.405659 -0.088007
-0.260490 -0.255320 -0.027429
0.096702 0.246285 -0.019985
0.167948 0.285450 0.060231
-0.119174 -0.124974 -0.275483
-0.044469 -0.391528 0.218972
0.037603 -0.071481 0.238280
-0.213051 -0.227261 0.145274
-0.093074 0.081910 0.089114
-0.084596 0.124510 -0.019316
0.061616 0.289315 0.011092
0.037467 0.209935 0.044964
0.162112 0.294501 0.025851
0.156771 0.413602 0.011434
0.176872 0.389871 -0.128481
-0.026629 0.085435 -0.265418
-0.064993 -0.423899 0.205707
0.086918 0.233100 -0.038509
0.033703 0.153417 0.080588
-0.149983 -0.094031 -0.286230
0.184679 0.450934 -0.064890
0.123846 0.428068 -0.059071
-0.019394 0.026574 -0.274650
-0.176874 -0.387779 0.149706
0.193599 0.272998 0.069896
-0.173608 -0.144577 0.142509
0.174427 0.395532 0.055885
0.117747 0.432255 -0.071415
0.172918 0.413237 -0.141400
-0.083745 0.179517 -0.057285
0.131169 0.274079 0.018890
-0.007387 0.069812 -0.218377
-0.244134 -0.362390 -0.017451
-0.196816 -0.016693 0.019242
0.156136 0.368504 -0.137480
-0.086113 0.105274 -0.020111
0.009754 0.078218 -0.224011
0.004549 0.093997 0.107423
0.193605 0.310513 0.048995
-0.200669 -0.364264 0.125771
0.089349 0.029831 0.209334
-0.128572 0.026907 0.094933
0.087940 0.175565 -0.194038
0.009982 -0.012884 0.150438
-0.001702 0.126015 0.133141
-0.223469 -0.090925 0.013763
0.257930 0.420441 0.013776
0.044583 0.162237 0.079904
0.060407 -0.174278 0.283484
0.082113 0.253532 0.082617
0.167503 0.343239 -0.111493
0.199191 0.435023 0.008856
0.094067 0.191717 0.137335
0.205867 0.373143 0.030343
0.019014 0.267389 -0.030152
0.238165 0.411924 -0.003676
-0.201333 -0.019695 -0.030176
0.172992 0.377348 -0.097762
-0.194654 -0.304258 0.112317
-0.202652 -0.280490 0.152563
0.084264 0.244593 0.007267
0.036074 0.277536 -0.035966
-0.042723 0.101349 0.046770
0.012375 0.168110 -0.178008
0.050028 0.034870 0.182176
0.138724 0.417186 -0.047714
0.096263 0.101189 0.188489
0.118882 0.388450 -0.152969
0.062864 0.225674 0.038323
0.235586 0.456820 -0.012515
-0.187587 -0.188100 0.150297
-0.074858 -0.105075 0.168787
0.252605 0.395360 0.027472
0.090479 0.181506 0.141201
0.054514 0.228627 -0.162078
0.211633 0.283530 0.043853
-0.201734 -0.181954 -0.299880
0.182558 0.238768 0.042891
-0.082345 0.006356 0.113063
0.054581 -0.166975 0.283233
0.014274 0.184424 -0.043427
-0.249515 -0.176341 0.019622
0.191784 0.447126 -0.052921
-0.244297 -0.218517 -0.012829
0.011353 0.186647 0.041821
0.068822 0.153692 -0.151598
0.190013 0.249621 0.022567
-0.184238 -0.071713 -0.038673
0.184564 0.350442 0.015496
-0.154712 0.070672 -0.018864
0.238828 0.409883 0.043217
0.227560 0.450084 0.007276
0.127708 0.216566 0.018902
-0.237082 -0.283586 0.018899
0.205997 0.398544 -0.052454
-0.174807 -0.399813 0.155991
-0.053727 -0.040797 0.186105
0.026314 0.250297 -0.035230
0.190186 0.426522 -0.148708
-0.140977 -0.126564 0.125601
0.036986 -0.024106 0.226589
0.213206 0.386656 0.000155
-0.076665 0.024891 0.107696
-0.209899 -0.133134 -0.013469
-0.055320 -0.335851 0.229177
0.169149 0.281855 0.046703
0.160403 0.340279 -0.029867
-0.038721 0.020077 0.174549
0.187617 0.443947 -0.162367
0.018126 0.194076 -0.188939
0.060760 0.220795 0.085686
-0.090922 -0.276000 0.237727
-0.046768 0.097431 0.046615
