0.441369 0.186098 -0.022734
-0.467275 -0.041132 -0.174282
-0.306205 -0.131493 -0.286340
-0.292226 -0.092631 -0.006032
-0.330279 -0.343413 -0.149111
-0.446298 -0.021119 -0.018522
-0.308853 -0.111659 -0.063108
0.206274 0.208244 0.147721
0.389690 0.139647 -0.082646
-0.336271 -0.264638 -0.141039
0.143923 0.034749 0.090438
0.401513 0.276241 0.120646
-0.264049 -0.159769 -0.217797
0.378691 0.179191 -0.108037
-0.130470 0.066795 0.010587
0.222929 0.269390 0.087540
0.288413 0.157599 -0.128706
-0.067458 0.067412 -0.151990
-0.161638 0.017912 0.047678
-0.223049 -0.137138 -0.027036
-0.050153 -0.010151 -0.191974
0.185400 -0.015979 -0.012962
-0.325218 -0.349028 -0.227962
-0.346108 -0.048957 -0.123622
-0.112878 -0.105555 -0.172001
0.026453 -0.122021 0.023935
-0.209342 -0.132177 -0.111488
-0.348435 -0.190693 -0.238391
-0.400333 0.010392 -0.075431
0.405769 0.154906 -0.062688
-0.290596 -0.205335 -0.034736
-0.347547 -0.003302 -0.028954
-0.412478 -0.000571 -0.119953
-0.395774 -0.267359 0.071426
-0.351390 -0.190242 0.085968
0.361885 0.091886 0.068512
0.260811 0.052795 0.101535
-0.000399 0.114411 0.037080
-0.406985 -0.273973 0.052176
-0.149039 -0.121297 -0.150064
0.287488 0.129594 -0.128773
-0.382474 0.013433 -0.135522
0.452520 0.226197 -0.026672
0.035983 -0.076346 0.096677
-0.250240 -0.256322 -0.244926
0.115162 0.182692 0.040655
0.437584 0.263599 0.003602
-0.262659 -0.115101 -0.043295
-0.088836 0.008441 0.122141
-0.462511 -0.164255 0.014007
-0.269267 -0.192953 -0.265582
-0.227837 0.040930 0.030537
-0.017312 0.118162 -0.021687
-0.327257 -0.323870 -0.165370
-0.475793 -0.074005 -0.132244
-0.364646 -0.236768 0.088541
-0.388734 -0.043137 0.017840
-0.158726 -0.167755 -0.103543
-0.469535 -0.148203 0.036484
-0.384273 -0.080737 0.063768
-0.382612 -0.067366 -0.272089
0.204042 0.239356 0.040785
0.286087 0.038777 -0.100467
0.194303 0.241997 0.142632
0.113646 -0.021309 -0.175022
0.285743 0.077960 -0.121851
-0.391732 -0.318842 0.023843
-0.291965 -0.283331 0.038978
-0.156322 -0.131929 -0.224847
-0.233517 -0.189165 -0.163469
0.163019 -0.052271 -0.011647
-0.216664 -0.133405 -0.161215
-0.462215 -0.200037 0.054556
0.261215 0.261657 0.078511
-0.182976 -0.056683 0.062054
-0.304555 -0.042885 -0.098656
0.079955 0.178278 0.069889
-0.259353 -0.126298 -0.010122
-0.419879 -0.003552 -0.087052
0.269743 0.212218 0.098493
-0.127028 -0.095743 -0.197501
-0.477868 -0.053685 -0.214376
-0.223283 -0.001678 0.045415
0.429997 0.217097 -0.042186
-0.252458 -0.252140 -0.250214
-0.403845 -0.104860 -0.258473
-0.228885 -0.170451 -0.197351
0.329397 0.160815 -0.039777
-0.235825 -0.125506 -0.104364
-0.359891 -0.266551 -0.050606
0.119025 0.186393 0.050419
-0.305040 -0.002480 -0.134593
-0.084600 -0.060823 0.069790
-0.288340 -0.365756 -0.133788
-0.158470 0.069976 -0.047596
-0.212245 0.000288 0.066055
0.455096 0.213881 -0.088575
0.167164 0.198754 -0.026734
0.321370 0.151136 -0.124892
-0.095300 0.037886 -0.163576
0.313053 0.050166 0.007981
-0.023988 0.116505 -0.015590
-0.399054 -0.316109 0.031450
-0.307906 -0.074173 -0.252785
-0.455464 -0.226959 0.070855
-0.333308 -0.110701 -0.002891
-0.339063 -0.262875 -0.134578
0.148108 -0.001700 -0.166509
-0.278960 -0.207487 -0.075986
0.368959 0.203505 -0.102144
-0.103333 -0.131432 -0.110072
0.253560 0.053320 -0.088063
-0.315322 -0.079918 -0.170305
-0.264733 -0.122979 -0.029957
-0.329179 -0.223929 -0.288770
-0.291188 -0.199365 -0.044466
-0.176126 0.055755 -0.097463
-0.441796 -0.266007 0.032014
-0.208826 -0.085606 -0.242015
0.276753 0.044218 -0.113899
-0.229571 -0.137003 -0.093330
-0.093194 -0.088390 -0.183768
-0.427903 -0.024846 -0.023361
-0.127792 0.057298 0.031118
-0.279479 -0.346123 -0.187961
-0.223337 -0.047182 -0.235134
0.273245 0.288710 0.161221
-0.296654 -0.102196 0.000685
-0.302496 -0.057176 -0.085360
-0.028810 -0.135701 -0.026946
-0.225440 -0.089093 0.053265
0.081591 -0.128577 -0.045608
0.265145 0.195378 0.034395
-0.351965 -0.329437 -0.054777
-0.183671 0.032663 0.014414
-0.451282 -0.084983 -0.066726
0.351245 0.145970 0.037798
0.232462 0.195607 -0.016531
-0.354631 -0.065724 -0.267827
-0.255253 -0.044429 0.052147
-0.464262 -0.164729 0.018985
-0.096794 -0.043605 0.097359
-0.252865 -0.330600 -0.073398
-0.213203 -0.147033 -0.100162
0.086634 0.131649 -0.082472
-0.336712 -0.057521 -0.142687
-0.327012 -0.095748 -0.105275
0.123343 0.070471 0.103654
0.239589 0.052395 -0.032508
-0.339608 -0.069749 -0.110167
0.003977 0.076114 0.084192
0.005311 -0.061254 -0.174234
-0.496625 -0.061557 -0.101329
-0.424621 -0.160660 0.089494
-0.103377 0.083299 0.039616
0.155498 0.039430 0.089473
-0.114605 0.076518 0.009141
0.239679 0.187671 0.003764
0.160927 0.161575 -0.078916
-0.340901 0.006293 -0.027828
-0.309043 -0.358050 -0.170067
-0.148225 0.069039 -0.043386
0.401254 0.226072 0.095166
-0.280458 0.005173 0.013079
-0.401079 -0.117755 -0.236996
-0.349641 -0.066661 -0.072547
0.247644 0.277688 0.083380
-0.296312 -0.170543 -0.078177
0.293379 0.132223 0.091859
0.233196 0.244870 0.057711
-0.454415 -0.089307 0.053493
0.239079 0.039868 -0.000660
-0.070972 0.062996 0.099078
0.060152 0.128845 -0.079992
0.237120 0.008624 -0.123930
0.305110 0.094912 0.106839
-0.263097 -0.042743 -0.211144
-0.167142 -0.124409 0.009258
-0.228347 0.028539 -0.021071
-0.460111 -0.023815 -0.166886
0.215822 0.082499 -0.148737
-0.093647 -0.050988 0.093531
-0.394793 -0.277975 0.061459
0.434988 0.160352 -0.082158
0.274489 0.117453 -0.131468
-0.005385 0.036378 0.117178
-0.261377 -0.031755 -0.195233
-0.283028 -0.111022 0.005717
0.288391 0.277641 0.175783
0.289418 0.197079 0.023659
-0.279974 -0.299883 -0.249087
-0.236146 -0.050918 -0.193592
-0.246563 -0.336347 -0.172801
-0.296333 -0.186181 -0.053835
0.100373 -0.122224 -0.039114
-0.258788 -0.358368 -0.097389
-0.484066 -0.037986 -0.085939
-0.160742 0.055691 -0.014092
-0.106560 -0.067916 -0.193314
-0.031813 -0.089969 0.068122
0.149303 0.104138 0.114865
-0.134365 -0.057737 -0.202217
0.185240 0.015325 -0.083153
0.227495 0.039620 -0.040914
-0.021272 0.012642 -0.186654
-0.315231 -0.164056 -0.303284
-0.240507 -0.184283 -0.220994
0.102790 0.021979 0.100278
-0.353973 -0.227115 -0.149524
0.376923 0.130262 -0.086217
-0.036293 -0.000593 0.116147
-0.237095 -0.195141 -0.227339
0.268350 0.072934 0.125212
0.046704 0.035851 -0.199716
0.419604 0.213230 -0.056676
0.360886 0.081844 0.020337
-0.213046 0.015255 0.062912
-0.448407 0.004219 -0.102776
0.290968 0.028179 0.053471
-0.133952 -0.122736 -0.126322
-0.293360 -0.095247 -0.224011
-0.411961 -0.124476 -0.129300
-0.046737 0.113199 -0.092129
-0.325320 0.007924 -0.084383
0.015554 0.009132 0.125800
0.149975 0.085037 0.101373
-0.262856 -0.355130 -0.156100
-0.455471 -0.006166 -0.056145
-0.136437 -0.113342 -0.157577
-0.214572 -0.305684 -0.155389
-0.417578 -0.001146 -0.179713
-0.318337 -0.347231 -0.222104
0.177893 0.091422 0.094561
-0.114953 0.097403 -0.056004
-0.340037 -0.328692 -0.226849
-0.442214 -0.068846 -0.157438
-0.033899 0.089173 0.085663
-0.272146 -0.107249 0.005925
0.411153 0.194965 0.041822
-0.086599 0.048395 0.102248
0.261243 0.220734 0.079669
0.434247 0.185831 -0.041083
0.076430 0.125641 -0.089310
-0.333961 -0.117901 -0.296927
0.192369 -0.000185 -0.001562
-0.372959 -0.015938 -0.186983
-0.374421 -0.024573 -0.060521
0.352981 0.142811 0.033370
-0.397282 -0.006230 -0.153338
0.255075 0.045711 -0.101421
-0.231008 -0.158253 -0.058525
-0.108777 0.005718 0.068569
0.386755 0.264992 0.100738
-0.247207 -0.017882 0.080677
-0.331464 -0.006081 -0.096000
0.022416 0.108778 0.045071
0.239115 0.024296 -0.104589
-0.226359 -0.043087 -0.194189
-0.344297 -0.101048 -0.291491
-0.213342 -0.082044 0.038886
0.363320 0.233045 0.050402
-0.203395 -0.088124 -0.244674
-0.303169 -0.361129 -0.137173
0.178350 -0.029559 0.001342
-0.022750 0.138424 0.091154
-0.361269 -0.327604 -0.032506
0.406371 0.162757 -0.085564
-0.374844 -0.276504 0.006139
-0.467734 -0.023664 -0.147204
0.371194 0.241927 0.029285
-0.373344 -0.147369 -0.227232
-0.109952 -0.167302 -0.060990
-0.086534 -0.094720 -0.177232
-0.177240 -0.147512 -0.118294
0.094303 -0.075983 -0.118798
-0.383365 -0.267665 0.078615
0.422265 0.147773 -0.061335
0.144167 -0.031914 -0.091555
0.218138 0.036135 -0.082663
-0.167965 0.039689 0.051953
-0.177918 0.063525 -0.070096
-0.427345 -0.134691 0.083311
0.068294 0.013031 0.104890
-0.440049 -0.127258 -0.024146
0.244603 0.186319 -0.004520
-0.282344 -0.328753 -0.216388
-0.285592 -0.247641 0.028788
0.249232 0.174811 0.068865
-0.297535 -0.077633 0.003401
0.300950 0.067478 -0.118307
0.381454 0.207284 0.035609
-0.494698 -0.055124 -0.190723
0.195106 0.009967 -0.008965
-0.337791 -0.072943 -0.110512
-0.487764 -0.077293 -0.041849
0.112828 0.011254 -0.136766
-0.264678 -0.148954 -0.231465
0.451106 0.232595 0.006208
-0.493757 -0.062642 -0.081876
0.274453 0.090220 0.122494
0.097942 0.184109 0.069128
-0.303803 -0.088250 0.044221
-0.341965 -0.027312 -0.174776
-0.231570 0.026659 0.014953
0.351711 0.293164 0.173985
-0.236535 0.049522 0.037037
0.304838 0.165172 0.069717
-0.220744 -0.059580 -0.241238
-0.246659 -0.043451 0.091317
-0.139207 -0.133370 -0.128946
-0.334425 0.011697 -0.080259
-0.347566 -0.008172 -0.026762
0.187640 0.104554 0.093423
0.043940 -0.062703 -0.168482
-0.030623 -0.140782 -0.025549
-0.284364 -0.325568 -0.220422
0.119649 -0.118323 -0.011843
-0.046710 0.101536 -0.107608
-0.309477 -0.368951 -0.076013
0.145043 0.083224 -0.156227
0.180881 0.261352 0.099399
-0.020110 0.003208 -0.188730
0.426330 0.163994 -0.079817
-0.202216 -0.134750 -0.007340
-0.455691 -0.072795 -0.089365
0.286922 0.296736 0.131927
-0.023033 -0.086220 -0.164996
-0.229366 -0.122925 -0.019416
-0.216688 -0.128206 -0.116334
0.009642 0.170142 0.077345
-0.343817 -0.271152 -0.235072
0.218219 0.005084 -0.124475
-0.249153 -0.005498 -0.157816
0.324400 0.177164 -0.119623
0.032117 -0.134511 -0.030322
0.255447 0.038015 0.009537
0.355084 0.188077 -0.112952
-0.148153 -0.122227 -0.131382
0.224572 0.277139 0.115884
-0.360372 -0.316182 -0.029692
0.346142 0.053568 0.049884
-0.240978 -0.185794 -0.245871
-0.373662 -0.145382 -0.247820
-0.099895 0.023287 0.115014
0.276270 0.225159 0.102500
-0.119644 0.042482 0.079060
-0.283344 0.040496 -0.001417
-0.013243 -0.114285 -0.096678
-0.411698 -0.027497 -0.007554
-0.335621 -0.242209 -0.185429
0.243672 0.198838 -0.056960
0.240646 0.276327 0.081451
0.360415 0.202699 0.030697
-0.290749 -0.144912 -0.021404
0.361387 0.131555 -0.053100
-0.252284 -0.178034 -0.156410
-0.123987 -0.008680 -0.191264
-0.044750 0.013265 0.116601
0.424401 0.259465 0.074399
-0.012077 0.121150 -0.044132
-0.324466 -0.349761 -0.152254
-0.450351 -0.054417 0.027651
-0.318745 -0.277231 -0.209415
0.344187 0.107542 -0.093833
0.027222 -0.141533 -0.052655
-0.279730 -0.244563 0.001773
-0.486996 -0.036384 -0.132371
-0.358438 -0.160172 0.092232
0.377439 0.213965 0.075642
-0.214742 -0.108578 0.006272
0.303855 0.081162 -0.080903
-0.231609 -0.184808 -0.165062
0.106243 0.184090 0.124351
-0.137370 0.059131 -0.117952
-0.446012 -0.003640 -0.160562
0.186997 0.240917 0.125992
-0.344005 -0.026400 -0.023348
-0.175350 0.006975 -0.164061
-0.432890 -0.123964 -0.055199
-0.037794 0.093655 -0.125326
-0.344620 -0.013126 -0.207844
-0.392046 -0.163747 -0.130678
-0.270139 -0.077707 -0.107380
0.130264 -0.099556 -0.061955
-0.141114 -0.126488 -0.124269
-0.264259 -0.205275 -0.131259
0.103801 -0.063191 -0.139646
0.171206 -0.046055 -0.003375
-0.276387 -0.006086 -0.111780
-0.049886 0.126416 0.066139
0.267520 0.218646 0.152352
-0.312753 -0.157044 -0.024329
0.289885 0.196382 0.027056
-0.386970 -0.045357 -0.255316
0.162456 0.139423 0.126927
-0.259000 -0.223957 -0.111655
0.179763 0.044807 -0.120238
-0.247983 -0.104691 -0.130072
0.008013 -0.039606 0.099469
0.361852 0.125929 0.046874
-0.244355 -0.001178 -0.124841
-0.144000 -0.066519 -0.205129
-0.224040 -0.286631 -0.117699
-0.403285 0.001185 -0.090992
0.419622 0.237624 -0.055313
0.082578 0.150828 0.051320
-0.354936 -0.060557 -0.262016
-0.272526 -0.270362 -0.267216
-0.230648 -0.088600 0.034331
0.463538 0.231405 -0.046581
0.278659 0.226652 0.152322
-0.255591 -0.267315 -0.253749
0.304117 0.281292 0.183418
0.063542 -0.021079 0.109872
-0.081412 -0.102689 -0.126675
0.162618 0.206015 -0.003600
-0.386100 -0.061274 -0.267595
-0.333068 -0.277210 -0.127339
-0.139477 0.045256 0.045789
-0.328009 -0.084206 -0.069590
0.294066 0.048202 -0.090026
-0.198890 0.052819 -0.045321
-0.303887 -0.267517 0.054436
-0.344288 0.004702 -0.030764
0.016888 -0.108052 0.046552
-0.412801 -0.048197 0.013231
0.085760 -0.002110 0.103216
-0.069419 -0.101717 0.043107
0.360541 0.139953 -0.093206
-0.328674 -0.330297 -0.141532
0.262720 0.269065 0.097396
0.296101 0.250687 0.141590
0.252209 0.178054 0.086780
-0.072649 0.025445 0.086267
0.333724 0.313322 0.127262
0.239168 0.061674 0.122034
-0.361608 -0.239791 -0.098806
0.168897 0.002729 0.040995
-0.447583 -0.068151 -0.148540
0.000092 0.072003 -0.149979
-0.231006 -0.086987 0.047408
0.265647 0.035918 0.017206
0.104657 -0.113253 0.018877
-0.207136 -0.076545 -0.175154
0.027998 -0.127986 -0.084915
0.184545 0.117497 -0.140007
0.354722 0.137701 0.053279
0.250233 0.098220 0.122818
-0.114319 -0.067993 0.074645
-0.041628 -0.124235 -0.056822
0.438396 0.162335 -0.059078
-0.285574 -0.080506 -0.139662
0.162237 0.210907 0.007547
-0.389972 -0.058924 0.047026
-0.352172 -0.071186 -0.271853
0.094997 -0.089293 -0.106400
0.163708 -0.020122 -0.139703
-0.423905 -0.015097 -0.047978
0.383330 0.273608 0.097240
-0.039924 0.128200 0.076986
-0.398673 -0.008906 -0.194696
-0.209459 -0.086708 0.067786
0.101286 0.027249 -0.144298
-0.356594 -0.041995 -0.079786
-0.326243 -0.088809 -0.052022
0.374514 0.297767 0.156799
0.115231 -0.034337 0.088617
-0.485149 -0.080324 -0.088493
-0.148096 -0.035971 0.066560
0.209639 0.171269 0.144182
-0.094404 -0.071864 0.048312
0.423188 0.198978 0.034508
-0.380501 -0.223366 -0.062136
-0.295751 -0.076189 -0.246319
0.286968 0.249144 0.168727
-0.029938 0.103763 0.092849
-0.196368 -0.010981 0.048822
0.135332 0.061912 0.102667
-0.033959 0.122159 -0.069351
0.142204 -0.060398 0.047700
0.313086 0.209657 -0.092640
0.307117 0.112255 -0.110676
-0.395760 -0.306779 0.008062
0.328825 0.275584 0.187681
-0.299992 -0.236252 0.059703
-0.321742 -0.257349 -0.211219
0.182049 0.009301 -0.078739
0.287714 0.284596 0.173741
-0.313939 -0.209162 0.071086
0.387173 0.200869 -0.108486
-0.323223 -0.352085 -0.128945
-0.305421 -0.270767 0.048272
0.021432 0.057073 -0.153384
-0.302347 -0.046389 0.036255
-0.192587 -0.122009 -0.157908
-0.405452 -0.185621 -0.042353
0.269646 0.193837 0.121517
-0.218752 -0.246727 -0.217463
-0.254858 -0.099328 -0.121330
0.188683 0.005841 -0.148991
0.413187 0.258804 0.007019
0.308145 0.121910 -0.114039
-0.019366 -0.064793 -0.177253
-0.143902 0.076739 0.065857
0.182269 -0.046801 -0.023890
-0.246005 -0.032190 -0.186657
0.129199 0.070547 -0.123757
0.054989 0.166148 0.068835
-0.320322 -0.258904 -0.214446
-0.189258 -0.117932 0.010752
0.177033 0.105983 -0.138865
-0.145498 0.071202 -0.045300
-0.278616 -0.193171 -0.097437
-0.080919 0.113847 0.043391
0.189867 0.255391 0.067824
-0.258853 -0.283420 -0.000069
-0.031795 -0.101828 -0.133597
-0.197886 -0.023485 0.059098
0.373311 0.215035 0.061109
-0.197968 -0.149384 -0.008872
-0.294146 -0.080793 -0.000557
-0.179158 -0.132684 0.004062
-0.363800 -0.027384 -0.206533
0.143726 0.063630 -0.120665
-0.340792 -0.306077 -0.271153
0.342751 0.122442 -0.104223
-0.308471 -0.117020 -0.272466
-0.071042 0.070262 -0.148992
-0.389455 -0.230178 -0.013979
-0.391506 -0.108983 0.065545
0.443485 0.241381 -0.070094
-0.009853 0.045975 0.089241
-0.139504 -0.017326 0.091417
0.325950 0.173361 0.005360
0.274949 0.018529 0.061979
-0.228065 -0.161466 -0.055540
-0.024930 0.116852 -0.090582
0.133224 -0.076462 -0.086536
0.052468 0.142559 0.080136
-0.173226 0.058894 0.064600
0.259101 0.191938 -0.102215
0.214770 0.025246 -0.054941
0.194427 0.011937 -0.070035
0.331585 0.167445 0.049603
-0.001412 -0.101320 -0.142448
-0.372006 -0.000942 -0.116026
0.205387 0.094153 0.098761
0.182662 0.240963 0.061445
0.281060 0.241400 0.126361
-0.402174 -0.149816 -0.118769
-0.262442 -0.221252 -0.105141
-0.067729 -0.082945 0.063221
0.108190 0.176032 0.056773
-0.420999 -0.032808 -0.012343
-0.374243 -0.081211 -0.281170
-0.101584 -0.072264 -0.191067
-0.325448 -0.075810 -0.149911
-0.327048 -0.350901 -0.097506
0.454935 0.209754 0.002697
0.237185 0.155982 -0.140571
0.113234 -0.116342 -0.042775
-0.337381 -0.227745 -0.245100
-0.244453 -0.017230 0.048951
-0.478503 -0.075013 0.017676
0.023739 -0.125889 -0.085659
-0.328011 -0.267474 -0.165303
0.246848 0.013491 -0.120814
-0.361513 -0.152874 -0.296913
0.190892 0.010972 -0.075921
-0.160430 -0.027192 -0.187214
0.214648 0.178912 -0.084625
-0.228106 -0.156417 -0.055431
-0.088237 -0.127290 -0.096978
0.227517 0.246242 0.056107
-0.353679 -0.125302 -0.299306
-0.469289 -0.041375 -0.180602
0.172313 -0.019617 -0.135128
-0.380216 -0.006229 -0.165813
-0.351018 -0.224018 -0.165383
0.255711 0.181861 -0.119652
0.210144 0.083584 0.114671
-0.353060 -0.220580 -0.164659
-0.190194 -0.039756 -0.211348
-0.386307 -0.286357 0.009140
-0.025002 0.106418 0.048783
-0.382882 -0.012262 -0.175616
0.261413 0.188575 -0.011041
0.190642 0.033789 0.026623
-0.247187 -0.188982 -0.158997
0.243707 0.191779 0.041687
-0.272167 -0.066930 -0.159320
0.037338 0.019802 -0.199871
-0.359180 -0.065004 -0.269655
-0.199543 -0.142837 -0.107641
-0.208962 -0.073358 -0.242621
-0.311377 -0.355990 -0.192289
-0.435875 -0.207547 0.072723
-0.286219 -0.107590 -0.270524
0.341031 0.141965 0.071893
-0.195315 0.041512 -0.029221
-0.376393 -0.082852 0.048122
-0.308624 -0.324350 0.029459
-0.306502 -0.067973 -0.043933
-0.275120 -0.120510 -0.242416
-0.365085 -0.201217 -0.272072
0.004699 0.089843 -0.134549
0.050932 -0.127310 -0.049597
-0.315862 -0.186122 0.076309
-0.268914 -0.242579 -0.041283
-0.233174 -0.258982 -0.135334
-0.260503 -0.102287 -0.089016
0.332375 0.126357 -0.025186
0.105652 -0.009443 -0.149075
-0.340214 -0.050373 -0.234128
0.082471 -0.074975 -0.138894
-0.247509 -0.326448 -0.193977
0.370598 0.233978 0.065349
0.300598 0.185404 -0.117339
0.185997 0.188318 -0.064274
0.178907 0.020314 -0.156786
-0.364945 -0.272731 -0.020651
-0.080256 -0.029466 -0.194576
-0.306699 -0.132273 -0.112053
-0.234106 -0.154426 -0.188942
-0.076163 0.043556 0.092523
-0.305646 -0.029746 -0.105092
0.315827 0.166073 -0.039645
-0.248278 0.007138 -0.141884
-0.272880 -0.049650 -0.176534
-0.222996 -0.171053 -0.062838
-0.247502 -0.117641 -0.098270
0.017241 0.002398 -0.183400
-0.019132 -0.069841 -0.173307
-0.222898 -0.160228 -0.090157
-0.293934 -0.363162 -0.036696
-0.384662 -0.060639 0.037217
-0.378935 -0.159277 -0.254045
0.126384 0.064204 -0.124420
-0.051850 -0.104531 0.034176
0.313798 0.203107 -0.116605
0.109801 0.034565 -0.138710
0.439932 0.176969 -0.082635
0.147239 -0.017683 -0.083291
-0.385494 -0.151984 -0.174896
-0.082020 -0.147795 -0.065022
-0.363456 -0.333613 -0.006410
-0.375401 -0.298701 0.055284
-0.273076 -0.042022 0.037771
0.221466 0.088213 0.123040
0.188216 0.192596 -0.058440
-0.100201 0.043666 -0.160273
-0.291078 -0.008848 -0.121705
0.220387 0.094889 0.119366
0.418573 0.253048 0.003701
0.339603 0.087008 0.093475
0.170552 0.165469 -0.080577
0.357742 0.207022 0.036710
0.139923 -0.024002 -0.160674
-0.017115 0.004901 0.133058
-0.152705 0.079678 0.057907
-0.292105 -0.193605 -0.054461
-0.360821 -0.194634 -0.184981
-0.230435 -0.080918 -0.170285
0.033698 0.155069 0.066780
-0.411942 -0.240184 0.078423
0.179211 0.117316 0.102630
0.191048 0.179886 0.144203
-0.498576 -0.038889 -0.166158
-0.363445 -0.214035 -0.140847
0.348661 0.123067 -0.041852
0.017956 -0.047211 -0.177093
-0.188139 -0.086712 -0.188791
-0.153558 -0.167746 -0.062886
-0.452929 -0.183766 0.059268
-0.148356 -0.107111 -0.174074
-0.344377 -0.062148 0.070331
-0.142895 -0.116488 0.021861
-0.347985 -0.194279 -0.232376
0.137846 -0.048981 -0.126588
-0.171376 0.054164 -0.102254
0.249806 0.052879 -0.007595
-0.447103 -0.254620 0.068668
0.028111 0.012563 -0.201910
0.305285 0.038699 0.030350
-0.282909 -0.057608 -0.092813
0.353782 0.307253 0.142098
0.317059 0.038573 0.044127
-0.458520 -0.031128 -0.004748
-0.326475 -0.265768 -0.174214
-0.281897 -0.081839 0.031349
-0.122356 -0.103113 -0.193733
-0.385731 -0.152132 -0.260131
0.252382 0.013236 -0.116366
0.294092 0.194044 0.004054
0.080353 0.173915 0.102272
-0.319274 -0.076887 -0.162427
-0.411734 -0.002315 -0.181008
0.022809 0.136192 -0.008680
0.144340 -0.073768 0.036712
0.255643 0.242104 0.163075
-0.254838 -0.046959 0.074375
0.075351 -0.130800 0.010946
0.130765 0.010686 0.105145
0.058183 -0.050656 -0.173181
-0.009391 -0.095728 -0.142100
0.315267 0.173554 -0.011642
-0.292697 -0.080482 0.027540
0.466454 0.223129 -0.031395
0.459480 0.215885 0.010141
0.214452 0.229213 0.152827
0.392680 0.281158 0.060663
-0.375885 -0.203932 0.091089
0.323801 0.047333 0.061420
0.264141 0.238823 0.073303
0.232195 0.105446 -0.154532
-0.112194 -0.061989 0.050598
0.215809 0.191345 -0.075977
-0.146128 -0.168350 -0.088263
-0.094830 0.073942 0.093338
-0.113748 0.007056 -0.174124
0.109745 0.149335 0.123090
-0.154158 -0.021998 -0.196822
0.256508 0.233149 0.069320
-0.498182 -0.058895 -0.103103
-0.206536 -0.069597 -0.196611
-0.185205 -0.153189 0.009662
0.097451 -0.004397 0.097901
0.059189 0.134157 -0.067193
-0.331926 -0.325464 -0.254617
0.432264 0.250181 0.063140
-0.020389 -0.123528 0.000352
-0.071541 -0.103402 -0.125797
-0.275703 -0.231467 -0.283589
0.283563 0.242312 0.129339
-0.404530 -0.305789 0.020529
-0.308497 -0.157212 -0.057591
-0.030152 -0.016123 0.090537
-0.052442 -0.013816 0.086909
-0.304906 -0.159551 -0.068430
-0.377007 -0.174276 -0.259826
0.366584 0.086355 0.048177
0.017846 0.119972 0.069146
-0.396829 -0.116276 -0.198819
-0.311831 -0.015988 -0.011448
-0.219501 -0.304468 -0.100665
-0.394475 -0.158997 -0.130261
0.296414 0.031130 0.050798
-0.303230 -0.353228 -0.008001
0.344854 0.073967 0.004015
-0.182271 0.061272 -0.076510
0.388643 0.293227 0.086140
0.243944 0.188911 0.056823
-0.321224 -0.359997 -0.195725
0.226038 0.231211 0.159792
0.065225 -0.109873 0.055939
-0.325624 -0.095229 0.085262
0.277764 0.241891 0.165576
-0.170123 -0.141373 -0.022247
0.208614 0.059135 0.112456
0.352734 0.179207 -0.113767
-0.009727 0.109688 0.081800
0.227709 0.026153 0.093210
-0.355864 -0.038654 0.031852
0.446301 0.216332 0.021562
0.117012 0.173833 -0.013384
-0.161581 0.047004 0.046909
-0.284479 -0.154835 -0.006085
0.107758 0.120979 0.096192
-0.272255 -0.228356 -0.280897
-0.393449 -0.045381 0.033406
0.248345 0.258270 0.157057
0.074572 0.039371 0.091985
-0.480358 -0.101259 -0.031758
-0.268817 -0.103018 -0.143038
0.289902 0.067986 0.114099
-0.153453 -0.028802 0.088597
0.044438 -0.128404 -0.043546
-0.274536 -0.046440 0.042137
0.312353 0.161344 -0.031545
-0.244952 -0.323578 -0.052057
-0.301772 -0.341252 0.009021
-0.401154 -0.128112 -0.242632
0.245582 0.058118 -0.028988
0.363846 0.078143 0.038856
-0.338301 -0.282410 -0.225197
0.427814 0.192003 -0.098112
0.452314 0.200982 0.007509
-0.420514 -0.156782 -0.040994
-0.273000 -0.136198 0.010627
0.055469 0.183248 0.088067
0.360584 0.114306 0.065722
0.026912 -0.009296 -0.196735
0.108461 0.075196 -0.167548
0.383425 0.190909 -0.064888
-0.006030 -0.133014 0.000097
0.353833 0.148538 -0.043260
0.418138 0.220959 0.024705
-0.284403 -0.059423 0.053070
0.136173 -0.002898 -0.160655
0.024904 0.047718 -0.159406
-0.037584 0.121634 -0.069090
-0.395754 0.013535 -0.092912
-0.387763 0.012518 -0.128441
-0.376562 -0.207922 -0.106827
-0.325616 -0.267866 0.060440
0.377524 0.122339 -0.091510
-0.127100 0.089943 -0.070240
-0.330848 -0.305081 -0.082064
-0.340240 -0.325911 -0.057610
-0.208454 -0.166580 -0.079357
-0.227534 -0.039262 -0.189766
0.191433 0.033847 -0.127066
-0.452667 -0.262516 0.049723
0.297338 0.159103 0.076716
-0.459138 -0.111949 0.059524
-0.284566 -0.176876 0.036911
-0.333886 -0.022036 -0.051745
-0.427009 -0.006528 -0.063953
-0.451269 -0.143590 0.006494
0.136075 -0.051857 -0.132706
0.148489 0.203680 0.036792
0.122470 -0.059058 -0.114188
-0.241034 -0.040449 -0.229150
0.211747 0.141665 -0.143657
-0.048840 0.118305 0.059910
-0.134639 -0.015710 0.082011
0.261606 0.065584 -0.032241
-0.124252 0.023287 0.086688
0.444494 0.251803 -0.010315
0.236107 0.197850 -0.030514
-0.431401 -0.052532 0.023017
0.335728 0.305854 0.126860
-0.244318 -0.142460 -0.153655
0.207867 0.269098 0.118077
0.248927 0.180866 0.080633
-0.181006 -0.089436 0.053962
-0.311582 -0.176410 -0.010545
0.455306 0.206494 0.015021
-0.303582 -0.137583 -0.114255
0.059608 -0.109297 0.057929
-0.348847 -0.068770 -0.064792
0.120726 -0.101501 -0.072179
-0.359573 -0.215865 -0.274064
-0.348525 -0.155724 -0.301960
-0.252393 0.041631 0.016649
-0.387042 -0.010296 -0.169254
-0.265573 -0.091511 -0.090339
0.344834 0.150427 -0.037115
-0.331556 -0.344070 -0.116241
-0.349828 -0.104485 -0.013453
-0.257507 -0.100803 -0.110086
0.231168 0.144815 0.114168
-0.341916 -0.266624 -0.236209
-0.471272 -0.011228 -0.100167
0.261222 0.063555 0.109290
-0.234180 -0.075816 0.067662
0.132252 0.008403 -0.121442
0.309072 0.160178 0.073898
-0.114436 -0.126632 -0.221798
-0.289619 -0.103746 -0.059189
-0.303076 -0.025597 -0.149675
0.134080 0.080758 -0.159553
-0.083424 -0.098816 -0.167698
-0.422608 -0.152307 -0.041514
-0.269674 0.038845 0.010661
-0.056740 0.115484 0.074742
0.059971 -0.135175 -0.018915
-0.320125 -0.135793 0.047352
-0.114475 0.074138 0.045677
-0.132917 -0.081607 0.037115
-0.034010 -0.081896 -0.170052
-0.360005 -0.175872 -0.220746
-0.284965 -0.007470 -0.001669
-0.083471 0.019427 -0.169913
-0.248037 -0.325060 -0.072368
0.125669 -0.100039 0.038935
-0.322282 -0.320903 -0.160706
0.306493 0.034125 0.048443
-0.039635 -0.003121 -0.191401
-0.297969 -0.092477 0.011576
0.225775 0.023332 -0.102190
0.425724 0.216901 0.023558
-0.284857 -0.027451 -0.151896
-0.255414 -0.298717 0.011666
-0.110020 0.093444 -0.048550
-0.267066 -0.048316 -0.170378
-0.481843 -0.043508 -0.199655
-0.226152 0.008665 -0.122399
-0.241579 -0.113743 -0.129973
0.159438 0.039604 0.085076
-0.488331 -0.063645 -0.029029
0.311283 0.067376 -0.011619
-0.119436 -0.154041 -0.043619
-0.206423 -0.005453 0.059370
0.363196 0.307380 0.125004
-0.099496 -0.080667 0.035903
0.041395 -0.101233 0.069146
0.163887 -0.035917 -0.052221
0.108879 0.130350 0.098008
-0.048516 -0.059422 -0.185181
-0.039438 -0.133761 -0.039882
0.272521 0.063861 -0.071928
-0.330526 -0.060055 -0.158822
-0.348578 -0.037724 0.007533
0.251450 0.172350 0.101673
0.300453 0.165631 -0.128427
0.266097 0.248169 0.166949
0.253042 0.199475 -0.065025
0.009976 0.025674 0.126317
0.102802 0.109642 -0.109929
-0.373618 0.006255 -0.123849
-0.492325 -0.058056 -0.191014
0.336162 0.260334 0.164517
0.125046 0.224905 0.096613
-0.069080 0.099307 0.076571
-0.244716 -0.299943 -0.217524
0.078854 -0.120663 -0.067431
0.060661 0.150214 0.075215
0.159745 -0.011494 -0.135174
0.221345 0.036768 -0.097740
-0.485274 -0.038219 -0.052722
-0.415516 -0.105994 -0.241490
0.081734 -0.131307 -0.001993
0.148337 -0.068831 -0.061888
-0.425448 -0.092344 -0.237090
-0.171857 -0.113288 0.013632
0.302954 0.187473 0.036272
0.164558 0.038347 0.072682
0.113381 -0.055072 -0.133067
-0.067723 -0.121443 -0.049057
-0.176876 0.062025 -0.085093
0.344058 0.106661 -0.060694
-0.122174 -0.062934 0.050479
-0.070146 -0.113359 -0.041173
0.250351 0.168918 0.097756
-0.171346 -0.137288 0.000303
0.123612 -0.100654 0.021031
-0.211653 0.030113 -0.003196
-0.224393 -0.211277 -0.229592
0.224762 0.259178 0.141821
0.115763 0.182979 0.052451
-0.250271 -0.323885 -0.060538
-0.404860 -0.125441 -0.153570
0.232641 0.208512 0.022647
-0.090057 -0.155747 -0.045242
-0.328448 -0.358999 -0.041567
-0.101341 0.089639 0.065878
-0.313858 -0.303133 -0.153446
0.308241 0.084245 -0.076793
-0.300583 -0.017852 -0.153646
0.194004 0.053162 0.084985
-0.489353 -0.068200 -0.168626
-0.233727 -0.008224 0.080764
0.413440 0.273644 0.072720
0.180847 0.235552 0.050522
-0.176344 -0.003272 0.088773
0.137986 0.180376 0.130756
0.093564 0.106668 -0.112653
0.277345 0.192836 -0.053827
0.294706 0.206965 -0.069712
-0.450128 0.000194 -0.075357
0.097765 0.055524 -0.158406
-0.411936 -0.185951 -0.016756
-0.066995 0.105386 -0.030492
-0.233287 -0.304163 -0.052541
-0.111431 0.068869 0.044418
-0.129546 -0.113893 -0.225645
-0.057378 0.055522 0.103274
-0.242770 -0.288504 -0.047165
0.372203 0.102074 -0.081946
-0.303969 -0.006983 -0.118266
0.434639 0.245509 0.041458
0.115773 0.014603 0.109193
0.277135 0.185446 -0.118999
-0.018746 0.051727 -0.160826
-0.229258 -0.268186 -0.132383
-0.081566 0.051597 0.108502
-0.310589 -0.368207 -0.080806
-0.396261 -0.120252 0.066213
-0.292798 -0.342164 -0.191549
-0.461311 -0.002438 -0.099348
0.204270 -0.009097 -0.111075
-0.164982 -0.087112 0.055075
-0.341246 -0.348271 -0.035355
-0.213069 -0.004317 0.080951
-0.252040 -0.289868 -0.012446
-0.318103 -0.094793 -0.142637
-0.307376 -0.120469 -0.275590
-0.176179 -0.073625 0.044484
-0.422431 -0.297577 0.031067
0.064441 0.052538 0.088926
-0.407363 -0.214300 0.092125
-0.334626 -0.343739 0.011389
-0.226897 0.017717 -0.133995
-0.351943 -0.210700 -0.186868
-0.439488 -0.075537 -0.232422
-0.250675 -0.043002 -0.180492
-0.350602 -0.261935 -0.095068
-0.296388 -0.327164 0.016391
-0.253575 -0.326869 -0.063162
-0.300450 -0.264555 0.062278
-0.211179 -0.285308 -0.164131
-0.089818 -0.003132 0.112120
0.169029 -0.035380 -0.128005
0.087222 -0.119151 0.032139
-0.318419 -0.108762 -0.112788
-0.336764 -0.082794 -0.270639
0.213971 0.198547 -0.058701
0.149077 -0.087508 0.036482
0.364874 0.202344 0.029956
0.063765 -0.109317 -0.089447
0.277201 0.257063 0.116480
-0.115122 -0.109827 -0.178702
0.096510 0.060984 -0.180945
0.059728 -0.027707 0.109239
-0.364046 -0.036944 -0.072970
-0.189854 -0.092266 -0.221101
0.231701 0.125675 0.110427
-0.273460 -0.214919 -0.079901
0.115181 0.167044 -0.030509
-0.358715 0.000692 -0.167005
-0.316849 -0.111024 -0.281017
0.002634 -0.045151 0.094875
0.043259 -0.083543 0.087051
0.114530 -0.121775 -0.016932
-0.445202 -0.113611 -0.032442
-0.221036 -0.160922 -0.094244
-0.016478 0.106881 0.083861
0.020947 -0.060307 0.096980
-0.364022 -0.036276 -0.221004
-0.256624 -0.173298 -0.218700
-0.394503 -0.112459 -0.219182
-0.262443 -0.086322 -0.171840
0.304668 0.102242 0.104174
0.171903 0.136248 -0.103191
-0.343792 -0.326809 -0.054657
-0.280110 0.019688 -0.029805
0.291873 0.178648 -0.025902
0.349331 0.133320 -0.109834
0.279477 0.101059 0.113656
-0.254976 -0.016053 0.026315
-0.221160 -0.287374 -0.126515
-0.464554 -0.138766 -0.005005
-0.237801 -0.283179 -0.075540
0.218278 0.125129 -0.154665
-0.163658 -0.114235 -0.199945
-0.426755 -0.080850 0.050968
-0.239523 -0.325191 -0.064907
0.314673 0.158529 -0.030680
0.248019 0.200911 0.157532
0.330454 0.165387 0.052860
0.231916 0.203053 -0.046116
-0.172370 -0.134355 -0.117821
0.442643 0.240675 -0.062628
-0.287727 -0.305239 -0.244004
-0.380042 -0.179650 -0.144989
-0.431564 -0.163505 0.086811
0.278496 0.175903 -0.132906
0.386050 0.270263 0.107861
-0.405973 -0.285619 0.007210
0.109042 -0.056596 0.087843
-0.342483 0.009066 -0.050032
0.429965 0.241758 -0.026030
-0.350466 -0.333231 -0.054453
0.362514 0.248742 0.055280
-0.324628 -0.096846 -0.114625
-0.285581 -0.158175 -0.140061
-0.020043 0.035132 -0.168984
-0.027681 0.095810 -0.118468
-0.378030 -0.202460 -0.107682
-0.083733 0.080534 -0.121274
-0.432674 -0.104940 -0.090170
0.249440 0.264157 0.069655
-0.305966 0.003073 -0.077892
-0.368847 -0.186256 -0.172269
0.215460 0.198602 -0.063729
0.314101 0.070720 -0.013853
-0.337234 -0.332036 -0.243521
-0.334954 -0.354288 -0.034307
0.032370 -0.130842 -0.069731
-0.294797 -0.257833 0.066610
0.034719 -0.133335 -0.053029
-0.429721 -0.082823 -0.196560
-0.327516 -0.343428 -0.237264
0.399995 0.176091 -0.100860
-0.490376 -0.044426 -0.087146
-0.251312 0.011413 -0.097281
0.138384 0.069747 -0.175252
-0.302611 -0.125935 -0.132603
-0.246403 0.033907 -0.042816
-0.057990 0.116566 0.062238
-0.024720 -0.035435 0.084973
0.266954 0.237553 0.079478
-0.033673 0.118300 0.094455
-0.317689 -0.024004 -0.085122
-0.072727 0.094123 0.078218
0.096199 0.164939 0.043401
-0.295435 -0.313372 0.021491
-0.282024 -0.343153 -0.014247
-0.088144 0.030264 -0.166363
0.306983 0.323586 0.160099
0.058533 -0.063205 0.099439
0.405329 0.239703 0.106484
0.462177 0.205682 -0.078315
-0.304281 -0.062119 -0.041080
-0.428991 -0.168330 0.009713
-0.000664 -0.053325 0.089576
0.272895 0.074978 -0.037141
-0.347879 -0.328066 -0.063254
-0.434558 -0.027288 -0.010143
-0.037764 0.020390 0.104509
0.326812 0.114228 -0.030962
-0.308185 -0.042948 0.031458
0.424386 0.235376 0.031260
-0.255308 -0.318121 -0.021175
-0.476636 -0.038902 -0.181364
-0.116424 -0.127982 -0.130451
0.035178 0.176219 0.085271
0.253986 0.189107 -0.100837
0.194170 0.014190 -0.035935
-0.421346 -0.243984 0.025366
-0.196915 -0.168667 -0.048813
-0.048290 0.003881 0.113060
0.169113 0.092433 -0.158116
-0.106541 -0.002278 -0.190373
0.284989 0.285172 0.171674
-0.283507 -0.368026 -0.068017
0.000751 -0.081103 0.070085
-0.317518 -0.301603 -0.251833
-0.066148 -0.092056 -0.163313
-0.321136 -0.013535 -0.099391
-0.165993 0.029668 0.079137
-0.420269 -0.095680 -0.152124
-0.409939 -0.131154 -0.123587
-0.376189 -0.161857 -0.190114
-0.459584 -0.071932 -0.099462
0.104689 0.054918 -0.145579
-0.446823 -0.057002 0.030920
-0.237846 -0.134921 -0.082273
-0.083299 -0.134491 -0.046970
0.249121 0.117275 -0.149777
-0.415064 -0.067249 0.030220
0.113070 0.101854 0.103530
0.323913 0.065060 0.089980
0.384868 0.252647 0.130793
0.265729 0.187780 0.112152
-0.354337 -0.282789 -0.038553
-0.384239 -0.166724 -0.152860
-0.307394 -0.123406 -0.280556
-0.154797 -0.122021 -0.227162
-0.268689 -0.067714 -0.162372
0.258513 0.285568 0.117742
-0.424007 -0.160988 -0.019417
-0.276548 -0.368217 -0.091200
0.150016 0.201964 0.012288
0.406802 0.235962 0.019841
-0.156644 0.068189 0.065714
0.199687 0.194146 -0.063669
-0.327337 -0.096869 -0.277805
0.227593 0.165791 0.131687
-0.298800 -0.007948 -0.124994
0.022933 0.060208 -0.152472
-0.038534 0.073885 -0.150233
-0.402897 -0.200420 -0.023037
-0.127229 -0.124086 -0.009322
-0.430782 -0.267520 0.022944
-0.345340 -0.201328 0.084569
-0.390607 -0.184709 -0.099122
0.340999 0.169986 0.048296
-0.294761 -0.107443 -0.201735
-0.256161 -0.156515 -0.249373
0.033367 0.083597 0.079913
-0.198033 0.054211 -0.057595
-0.350564 -0.239019 -0.250795
0.140605 -0.035531 -0.142526
-0.336302 -0.341438 -0.223111
0.270742 0.258293 0.103775
-0.022974 0.111573 0.092873
0.176208 0.008785 -0.066959
0.064536 0.092150 0.075713
0.291051 0.283940 0.175924
-0.340740 0.007703 -0.092400
-0.323367 -0.271528 -0.175190
0.201114 0.234327 0.029107
-0.114507 -0.107121 0.040781
-0.316263 -0.285798 0.050711
-0.029328 0.060966 -0.157580
0.067307 -0.045689 -0.181261
0.067308 0.056930 -0.186763
-0.386017 -0.037646 -0.247480
-0.120950 0.055795 0.051400
-0.235654 -0.315016 -0.029377
0.313741 0.179595 -0.043802
-0.069933 0.091798 0.080216
-0.316847 -0.102260 -0.073413
0.462117 0.206022 -0.070485
0.127516 0.102614 -0.114658
-0.183283 0.033641 0.037124
-0.252088 -0.216630 -0.154619
0.066181 0.124458 -0.089748
-0.292636 -0.084332 -0.002519
-0.380470 -0.206908 -0.094956
-0.267133 -0.207945 -0.117774
0.254779 0.187964 -0.008839
-0.018052 0.086690 0.073133
-0.075333 -0.109495 0.024516
-0.487599 -0.077589 -0.100165
-0.115714 0.080443 -0.007304
0.051657 -0.019174 -0.192715
-0.211340 -0.095246 0.027497
0.076068 -0.075193 -0.155411
-0.243170 -0.051326 -0.206005
-0.496116 -0.034674 -0.157045
-0.332659 -0.280039 -0.282103
-0.365213 -0.158539 -0.237331
-0.128489 -0.032048 -0.200460
-0.413554 -0.023096 -0.022242
-0.279142 -0.178949 -0.278934
0.174109 0.245361 0.070480
-0.237110 -0.195534 -0.246157
-0.050288 0.037485 -0.164415
0.258503 0.168385 0.071940
-0.213413 -0.151372 -0.100309
0.079399 0.065093 -0.149299
-0.087024 0.109402 -0.055335
-0.130258 0.074157 -0.106485
-0.294546 -0.228971 0.026264
-0.172801 0.065984 -0.075902
-0.374792 -0.179559 -0.258121
0.405044 0.200265 0.073682
0.143368 -0.028862 -0.097452
-0.305219 -0.125870 -0.278780
0.169517 0.151858 0.132888
-0.090227 -0.108169 0.032968
0.411886 0.233762 0.115649
-0.227078 -0.146183 -0.090294
-0.468047 -0.084023 -0.067411
0.057566 0.146082 -0.020319
-0.229711 -0.165036 -0.193813
0.193883 0.260778 0.077152
-0.346610 -0.167749 -0.301091
-0.027300 0.025290 -0.181325
-0.263451 0.046115 -0.001887
-0.266359 0.022918 0.022782
-0.099849 0.048644 -0.157801
-0.387888 -0.236472 0.091517
-0.374407 -0.180052 0.081888
0.108786 0.090551 -0.121260
0.364769 0.148795 -0.046752
-0.363413 -0.219852 -0.130407
-0.105194 -0.062324 0.086102
-0.343044 -0.307703 -0.217978
0.018260 -0.110224 0.043453
0.031038 -0.021291 -0.190096
0.098285 0.079635 -0.130992
-0.423226 -0.153834 -0.036252
-0.309895 -0.196898 0.072293
-0.214752 0.021631 -0.113297
0.459128 0.205157 -0.033643
-0.366973 -0.003162 -0.129382
-0.110404 -0.051366 0.074257
-0.292316 -0.119825 0.015767
0.260327 0.016144 0.056658
0.193511 0.066342 -0.137439
-0.389411 -0.145689 -0.257262
-0.153254 -0.108969 -0.238861
-0.080852 -0.123299 -0.134288
-0.237866 -0.237999 -0.166607
-0.355457 -0.147982 0.089106
0.293684 0.075799 -0.080485
0.002414 0.085047 -0.139843
-0.139404 0.044751 -0.148919
-0.155809 -0.102483 -0.225632
-0.265687 -0.335524 -0.201376
-0.401346 -0.101940 -0.218812
-0.270388 -0.364786 -0.123662
-0.261338 -0.344181 -0.182328
-0.321669 -0.092902 0.078152
-0.005258 -0.024879 0.097696
-0.182632 -0.091265 -0.238339
-0.362518 -0.194498 -0.179294
-0.030336 -0.097350 -0.129708
-0.391784 -0.195075 -0.075357
0.320179 0.324546 0.166773
-0.435551 -0.043320 0.013552
0.346817 0.195530 -0.107072
-0.353138 -0.039081 -0.115209
-0.102978 0.067621 0.085265
-0.232731 -0.207291 -0.243480
-0.126689 0.049651 0.043729
-0.209664 -0.029687 0.075953
-0.210677 -0.220235 -0.196481
-0.262894 -0.249365 -0.268081
0.418021 0.237188 -0.059696
-0.468672 -0.008479 -0.098680
-0.219124 -0.017702 -0.171159
-0.114501 -0.053431 0.093634
0.422481 0.227050 -0.102866
0.132846 -0.024664 -0.163308
0.386198 0.153803 -0.055308
-0.190875 -0.123477 -0.146507
-0.426533 -0.213837 0.080232
0.337726 0.101658 -0.069239
0.175436 0.234093 0.058991
0.041043 0.015463 -0.194690
-0.074919 -0.114910 0.002268
0.276831 0.255668 0.090858
0.235204 0.156845 0.116389
0.328917 0.046798 0.024188
0.197095 0.008796 -0.143679
0.216135 0.006352 -0.114386
-0.111425 -0.097906 -0.167407
-0.271442 -0.003953 -0.108992
-0.285993 -0.000399 -0.163563
0.139848 0.143117 0.118497
-0.210656 0.020523 0.022115
-0.435808 -0.073946 -0.176187
0.215395 0.025250 -0.006895
-0.322418 -0.102187 -0.110898
-0.053284 -0.063495 0.071157
-0.220235 -0.311960 -0.085108
-0.412410 -0.033762 -0.002659
0.137787 -0.094195 0.032188
0.244535 0.269052 0.072581
-0.390284 -0.236156 -0.000206
-0.413358 -0.255677 0.062304
-0.355117 -0.059294 -0.066237
-0.329981 -0.145400 0.063774
0.296068 0.042337 -0.094986
0.015180 0.106237 0.053565
0.372063 0.175317 0.044351
-0.310488 -0.367755 -0.085471
-0.239985 -0.322727 -0.090774
-0.297592 -0.008822 -0.169321
-0.182372 -0.161758 -0.042597
0.392256 0.178005 -0.061031
-0.102279 -0.091409 0.040380
-0.365620 -0.244009 -0.075523
-0.290630 -0.109211 -0.211177
-0.475701 -0.074710 -0.155781
0.187337 0.101265 -0.152125
-0.060401 -0.103143 0.037327
0.147767 0.114237 -0.111870
-0.431924 -0.016751 -0.032701
0.123193 0.129393 -0.084885
-0.086455 -0.107066 0.033819
-0.055316 -0.031772 0.096787
-0.360449 -0.061222 -0.266213
0.137984 0.124173 -0.103649
-0.082772 -0.006711 0.099229
-0.125810 -0.114490 -0.185763
-0.045334 -0.121160 -0.071454
-0.085814 0.102291 0.015929
0.219616 0.037477 -0.073522
0.295314 0.194731 0.008354
0.330388 0.094115 0.100526
-0.266782 -0.105373 -0.058380
-0.422254 -0.122638 0.078209
0.397222 0.246408 0.016983
-0.326651 -0.349207 -0.117219
0.062534 -0.012604 -0.184085
-0.008730 0.052020 -0.159557
-0.476749 -0.021043 -0.104839
0.383836 0.294906 0.118580
-0.008567 0.114972 0.085941
-0.032630 0.045378 0.092205
-0.293688 -0.090579 -0.144986
0.213060 0.095369 0.111355
-0.169473 -0.066699 0.061705
-0.303824 -0.078111 0.004970
-0.206670 -0.037305 -0.186128
0.376501 0.287314 0.130071
0.270564 0.044918 0.010146
-0.454854 0.001675 -0.101122
-0.330492 -0.332380 -0.107027
-0.205111 0.021943 0.017955
-0.312602 -0.082060 0.034479
0.259359 0.029454 0.068816
0.340771 0.287039 0.195101
0.216433 0.064741 -0.129664
0.260244 0.097532 -0.130986
-0.241139 -0.291495 -0.210823
-0.293501 -0.177741 0.004959
-0.279315 -0.364381 -0.057152
-0.376470 -0.139409 -0.244893
-0.351902 -0.092012 -0.025252
-0.332456 -0.160417 -0.304473
-0.311905 -0.248759 -0.282591
-0.307890 -0.059897 -0.037347
0.030400 0.039568 -0.168818
0.111392 0.124258 -0.098044
0.043769 0.086454 0.076682
-0.072284 0.047905 0.108676
0.404511 0.213431 0.031391
0.209547 0.033167 0.015152
0.327866 0.086759 0.102399
-0.270826 -0.225862 -0.068021
0.221374 0.088827 -0.148883
0.239097 0.128091 -0.145066
-0.221169 0.023673 0.038637
-0.262878 -0.362335 -0.116195
-0.316301 -0.359049 -0.121468
-0.322635 -0.360833 -0.030518
-0.267410 -0.083204 0.035721
-0.273902 0.042532 -0.007989
-0.272846 -0.187616 -0.133198
-0.384540 -0.217775 -0.058056
-0.174328 -0.156696 -0.093027
-0.119951 -0.098915 -0.191733
0.183394 -0.016454 -0.118751
-0.118689 -0.114359 -0.140841
0.378337 0.192996 -0.065671
-0.437629 -0.211973 0.065804
-0.399710 -0.014091 -0.005605
0.131931 0.170900 -0.041585
-0.280044 -0.030328 0.024724
-0.270757 -0.276654 -0.262937
-0.117874 0.067174 0.046496
0.078633 0.061628 -0.178824
-0.368175 -0.031233 -0.075006
0.239043 0.105093 0.118277
-0.425828 -0.170548 0.003834
-0.469351 -0.077015 -0.091386
0.197170 0.233331 0.030238
-0.379099 0.001027 -0.094881
-0.434967 -0.295195 0.049202
0.445893 0.204325 0.026406
0.052068 -0.004546 -0.195602
0.116781 -0.013851 -0.169564
-0.000529 0.113119 0.078755
-0.235677 -0.016674 0.085840
0.018597 0.130972 -0.043950
-0.151454 -0.124154 -0.128596
-0.493634 -0.061487 -0.061634
-0.326802 -0.358826 -0.026300
-0.259698 -0.279283 -0.004360
0.167929 0.013219 -0.079772
0.059775 0.125059 -0.088097
0.322683 0.096769 -0.096584
0.147103 -0.086141 0.019053
-0.293425 -0.199636 -0.034672
0.243616 0.030270 -0.098595
-0.321067 -0.107277 -0.073382
0.224568 0.091918 0.123226
0.349702 0.193248 -0.109622
-0.005199 0.131893 0.059949
-0.070147 -0.053813 -0.189703
-0.341444 -0.010153 -0.050953
-0.236537 -0.005978 -0.158857
-0.396040 -0.032371 0.018703
-0.352837 -0.179939 -0.244063
-0.328775 -0.042771 -0.194364
-0.277391 -0.265403 -0.272033
-0.205435 -0.118195 0.011413
0.378828 0.245066 0.144944
-0.012094 0.035873 0.103127
-0.454381 -0.266110 0.062503
-0.359086 -0.116485 0.050280
0.105310 0.045250 -0.173672
-0.400800 -0.281639 0.012846
0.246281 0.226139 0.159164
-0.281383 -0.187921 -0.286312
-0.401865 -0.143467 0.082695
0.243259 0.066893 -0.119994
-0.302957 -0.369911 -0.072260
-0.217430 -0.318399 -0.116899
0.446946 0.173567 -0.075890
-0.197052 0.039298 -0.104718
0.123633 0.016419 0.110605
-0.247103 -0.231987 -0.137581
-0.456836 -0.070106 -0.105604
-0.368472 -0.161194 -0.284082
0.306832 0.255226 0.150321
-0.315368 -0.029005 -0.080328
-0.028782 -0.122656 -0.012178
0.396784 0.239021 0.111855
-0.427331 -0.232507 0.064765
0.189567 -0.003267 -0.024975
-0.080045 -0.160524 -0.052951
-0.296083 -0.146562 -0.284337
-0.222396 -0.167484 -0.169992
-0.317017 -0.116362 -0.286348
-0.219458 -0.152024 -0.095816
-0.262803 -0.127007 -0.017296
0.260713 0.138267 0.092660
0.287375 0.269142 0.176141
-0.463677 -0.183056 0.045359
0.134432 0.017238 0.099700
-0.314569 -0.123786 0.024779
0.399228 0.218671 0.093108
-0.318027 -0.363943 -0.070232
-0.344324 -0.082131 -0.058137
-0.323738 -0.034870 -0.051957
-0.174502 0.065702 -0.062142
0.286789 0.305603 0.158168
-0.223245 0.030153 0.032975
-0.166002 -0.029257 0.077521
-0.472468 -0.025803 -0.134210
0.091229 0.139311 0.100547
0.098856 -0.123817 -0.003695
-0.441429 0.000560 -0.074755
-0.341609 -0.063366 -0.245326
0.125944 0.186066 0.033042
0.077762 0.051277 -0.160429
-0.285712 -0.142603 -0.268923
0.252004 0.184420 0.051471
0.439818 0.189719 -0.022065
0.155475 0.218263 0.052493
-0.350661 -0.170241 0.093459
0.137011 0.060773 -0.168828
-0.016810 -0.138642 -0.023341
0.052019 0.189898 0.081830
-0.470565 -0.080765 -0.079173
-0.254857 -0.068972 0.058167
0.472627 0.193571 -0.071437
-0.085646 0.109464 -0.062014
0.227974 0.111062 -0.149151
0.011613 0.116366 0.074002
-0.140314 0.071099 -0.015973
-0.269691 -0.084999 -0.088318
0.034620 0.012247 0.107012
-0.485379 -0.045174 -0.199021
0.385964 0.108153 -0.082059
0.101540 0.053586 -0.148575
0.167182 0.111524 0.104886
-0.130035 0.036383 -0.158119
-0.227020 -0.197591 -0.222869
-0.034749 -0.093317 0.051450
-0.293896 -0.320260 -0.224989
0.172138 -0.043889 -0.043258
0.005995 0.110008 0.068098
-0.425390 -0.296104 0.032757
0.154417 0.004087 0.055092
0.041443 -0.081627 0.090115
0.189846 0.010328 -0.072334
-0.296328 -0.090417 0.083635
0.295024 0.272270 0.132491
-0.241260 -0.016320 -0.169407
0.457454 0.182801 -0.069684
-0.003994 -0.079172 -0.167265
0.156998 -0.029840 -0.059606
-0.293807 -0.032247 -0.116055
-0.468025 -0.007979 -0.102661
0.154088 0.207758 0.128126
-0.303665 -0.352436 -0.162281
-0.075772 -0.022542 -0.194411
0.341013 0.135765 -0.008805
-0.046470 -0.039389 0.093546
-0.347535 -0.327579 -0.074373
-0.276325 0.004770 -0.140518
-0.208639 -0.153219 -0.007968
0.442407 0.216530 0.024839
-0.323270 -0.094821 -0.123707
0.063546 0.149251 0.001470
0.280952 0.068183 -0.074858
0.391104 0.159374 -0.093768
0.422964 0.199465 0.043053
-0.259924 -0.264139 -0.260648
0.259799 0.161341 -0.141358
-0.217464 -0.277508 -0.157206
-0.174451 0.015995 0.080355
-0.253720 -0.341901 -0.077053
-0.316099 -0.047677 0.040735
0.148233 -0.036805 -0.074678
-0.321083 -0.328121 0.033423
0.126526 0.077532 -0.160715
0.191662 0.158202 -0.097065
0.157449 0.022911 -0.106570
-0.118940 -0.135302 -0.092747
-0.436091 -0.232596 0.026809
0.436131 0.225103 0.009052
-0.167720 -0.150229 -0.130739
-0.058079 0.102650 0.040104
0.097568 0.069808 -0.186199
0.049369 0.029675 -0.193782
-0.261215 -0.219447 -0.113108
0.075432 0.156407 0.115432
0.201447 0.206974 -0.037147
0.303225 0.180808 -0.122364
0.236976 0.029667 0.088042
-0.377579 -0.241871 -0.035644
-0.451727 -0.016543 -0.175516
-0.302618 -0.335778 -0.197243
0.120691 0.177293 -0.004136
-0.287099 -0.173971 -0.105619
-0.140274 -0.120552 -0.231350
0.470471 0.196179 -0.050706
-0.318592 -0.090650 0.051176
-0.426685 -0.100443 -0.119531
-0.015920 -0.112894 -0.131214
-0.292573 -0.195890 0.049926
-0.048576 -0.137743 -0.045052
0.317357 0.204698 -0.115011
-0.036639 0.114599 -0.014668
-0.132566 0.077235 -0.038916
-0.188287 -0.114405 0.019583
-0.466064 -0.154378 0.013669
0.435797 0.241946 0.064590
0.474486 0.198778 -0.056745
-0.407094 -0.171629 -0.062484
0.303147 0.040049 0.026702
-0.125290 -0.161335 -0.045380
0.083677 -0.007284 0.105303
0.284291 0.138533 0.090309
-0.130498 -0.100890 0.022710
0.428547 0.187796 -0.096104
0.249753 0.196049 -0.074461
0.398084 0.204790 -0.066619
-0.451201 -0.091783 -0.053799
-0.220496 0.005368 0.044015
0.331494 0.168583 -0.116305
-0.489356 -0.072195 -0.149669
-0.167555 0.045954 0.007252
-0.466348 -0.085478 -0.062216
0.164709 0.012006 -0.138407
-0.187249 -0.028211 0.055841
0.024624 0.148737 0.064514
-0.163690 0.023866 0.088762
0.440412 0.199775 -0.004404
-0.405301 -0.109348 -0.180925
-0.258119 -0.282959 -0.003415
-0.033797 0.052192 0.089026
-0.342253 -0.054691 -0.128160
-0.232422 -0.165367 -0.163034
-0.205191 -0.046518 -0.197570
0.143812 -0.032402 -0.143834
0.154720 0.098401 0.104707
0.401108 0.124516 -0.076811
-0.177499 -0.011732 0.053550
0.246846 0.235737 0.061228
0.250266 0.182561 -0.106479
0.389589 0.245567 0.135702
-0.155107 0.049736 -0.136405
0.284512 0.194955 0.001435
-0.367006 -0.248816 -0.061312
0.017841 -0.034309 -0.178380
-0.453585 -0.202747 0.023491
-0.077033 0.104164 -0.002832
0.320465 0.141992 0.084419
-0.505228 -0.053528 -0.125448
-0.228966 -0.114468 0.002617
0.331780 0.104531 -0.051817
-0.030553 -0.108259 0.049962
-0.242887 -0.324436 -0.055446
-0.308887 -0.341885 -0.198733
0.152993 0.101854 -0.171314
-0.086580 -0.013387 -0.195066
-0.392124 -0.188340 -0.086720
-0.487745 -0.036722 -0.126242
-0.470798 -0.136014 0.019651
0.367503 0.091073 0.035259
-0.395154 -0.134998 -0.171046
-0.169009 0.014719 0.087131
0.127968 0.212522 0.120197
-0.380700 -0.147504 -0.271341
-0.001467 0.121529 -0.041748
0.375302 0.297387 0.122914
-0.297597 0.026766 -0.019704
0.114019 0.044077 0.104766
0.322352 0.286923 0.190584
-0.031249 0.087659 -0.137478
0.087870 0.135542 0.086935
-0.444665 -0.264422 0.066115
-0.303828 0.000266 -0.086719
0.305145 0.035490 0.039178
-0.340708 -0.021372 0.015998
