0.193139 0.007695 0.084065 
-0.234877 -0.451074 0.012900 
0.267515 0.411826 -0.003276 
0.298033 0.461831 -0.010353 
0.320417 0.131477 -0.036833 
0.246601 0.377867 -0.046509 
0.103441 -0.141392 -0.039238 
0.289226 0.225517 0.083601 
0.140166 -0.150528 0.136429 
0.158438 -0.055783 0.110273 
-0.044908 0.003285 -0.348886 
-0.218314 -0.419188 0.032282 
-0.093691 -0.028504 -0.369901 
-0.053367 -0.091624 0.320022 
0.020189 -0.159985 -0.287460 
0.019858 -0.188793 -0.275992 
0.305347 0.447889 0.014775 
-0.401422 -0.333183 0.104912 
0.153054 0.057212 0.105628 
0.055522 -0.216040 0.050721 
-0.040850 -0.001014 -0.038653 
0.215259 0.202117 -0.017374 
0.358079 0.340080 -0.063647 
-0.044226 -0.226307 -0.331491 
0.031778 -0.171459 -0.278728 
0.294540 0.222196 0.089567 
0.191781 -0.056528 0.040451 
0.031713 -0.135308 -0.210025 
-0.214563 -0.117369 0.193579 
-0.047551 0.038355 0.062784 
0.072467 -0.091839 0.239270 
-0.232456 -0.421651 -0.013110 
-0.031825 -0.229811 -0.303242 
0.078243 0.015122 -0.172659 
0.237506 0.435720 -0.087204 
-0.275676 -0.189430 0.150915 
0.383818 0.234690 0.028799 
0.294004 0.171968 -0.068598 
-0.046484 -0.136211 0.338128 
0.306582 0.268559 0.080513 
0.092280 0.148216 -0.012323 
-0.260314 -0.451508 -0.135118 
0.121282 0.089510 0.080364 
-0.108706 -0.101721 0.046837 
0.226848 -0.038753 -0.126099 
-0.390006 -0.350436 0.098909 
0.259075 0.397794 -0.083329 
-0.366399 -0.335710 0.098353 
-0.388465 -0.310885 0.111496 
0.138451 0.041988 -0.180323 
0.016984 0.016266 -0.079480 
0.088221 0.040249 0.104370 
-0.127177 -0.239133 0.172444 
0.061564 -0.086108 -0.182697 
-0.079220 -0.300529 0.287471 
0.385511 0.257042 0.079496 
-0.123911 -0.072298 0.287045 
-0.080119 -0.198177 0.347705 
0.106526 0.025989 -0.180502 
-0.056581 -0.337716 0.150370 
0.372917 0.219072 0.063089 
-0.011623 -0.052627 -0.097199 
0.056664 0.022953 0.131756 
-0.119001 -0.261342 0.189154 
0.145154 0.088259 0.088015 
-0.302048 -0.238770 0.126187 
0.152010 -0.022447 -0.187893 
0.154987 0.182249 -0.026135 
-0.127698 -0.056167 0.227522 
-0.275963 -0.448047 -0.070971 
-0.231617 -0.185207 0.239629 
0.319381 0.122350 -0.017720 
0.165696 -0.085979 -0.106705 
0.214954 -0.055050 -0.125126 
-0.000774 -0.186795 -0.257336 
0.069479 -0.231937 0.158051 
-0.272518 -0.496052 -0.093806 
-0.181389 -0.148959 0.302581 
0.057616 0.061832 -0.189191 
-0.331776 -0.268981 0.146712 
-0.006726 -0.237215 0.079403 
0.211394 0.177503 0.007898 
-0.109272 -0.283492 0.194506 
-0.214921 -0.116532 0.199590 
-0.024507 -0.281765 0.320292 
0.387838 0.255119 0.013990 
-0.090660 -0.291304 0.128016 
0.291971 0.055350 -0.030960 
0.322106 0.423057 -0.098374 
-0.028005 -0.306884 0.287885 
0.261157 0.239840 -0.025313 
0.038710 -0.253376 0.305358 
-0.432651 -0.346989 0.024329 
0.180914 0.161866 -0.104582 
-0.096072 -0.049819 0.270187 
0.106493 0.057871 0.093249 
0.402507 0.328080 0.016655 
0.027321 -0.283326 0.290173 
-0.108943 -0.210026 0.338742 
-0.215619 -0.407026 0.008994 
-0.099427 -0.358327 0.068076 
-0.081647 -0.169808 0.069331 
0.102652 0.065799 -0.179167 
0.258720 0.065984 0.057801 
0.310434 0.381862 -0.096895 
0.315840 0.226627 0.103320 
-0.165026 -0.165532 0.320455 
-0.080444 -0.024761 0.171028 
0.275257 0.231516 0.067403 
0.092709 0.136451 0.009100 
0.274752 0.083539 -0.095358 
-0.204205 -0.196195 0.276666 
-0.339733 -0.317449 0.146685 
0.019538 -0.302228 0.264393 
-0.020954 0.045950 0.003730 
-0.066076 -0.234211 -0.376847 
-0.033813 0.046055 0.065922 
0.294628 0.071939 -0.038782 
0.283707 0.031590 -0.089522 
0.253493 0.361918 -0.023612 
-0.036140 -0.211068 -0.284661 
-0.037476 -0.185511 0.345300 
0.006663 -0.316099 0.232654 
0.164266 -0.024277 -0.184407 
-0.035202 -0.204867 0.060561 
0.305083 0.165646 -0.062466 
0.213463 0.024382 0.078376 
0.014957 0.065561 -0.105335 
0.019458 -0.116300 0.303122 
-0.150454 -0.348210 0.107238 
-0.213214 -0.150336 0.154804 
0.352666 0.320718 -0.044844 
0.186057 0.052451 0.101686 
-0.119019 -0.356285 0.107741 
0.019584 0.086260 -0.185636 
0.213736 -0.051251 -0.132907 
-0.024839 -0.083525 -0.076231 
-0.088509 -0.278107 0.301286 
0.088905 0.162743 -0.067258 
0.022651 0.041953 -0.239318 
-0.352894 -0.306212 0.152368 
-0.215382 -0.168262 0.254716 
0.106891 -0.195329 0.195282 
-0.183442 -0.193272 0.175567 
-0.254807 -0.488901 -0.115925 
-0.079325 -0.120377 -0.004107 
-0.360129 -0.295348 0.098886 
-0.012361 -0.209188 -0.335100 
0.171698 -0.017769 -0.179522 
-0.074783 -0.099574 0.326808 
-0.048547 -0.066698 -0.061416 
0.001870 -0.317124 0.187732 
0.054227 -0.222787 0.302985 
0.109199 0.016951 0.119655 
-0.042437 -0.114425 -0.048610 
0.031032 -0.097958 -0.094981 
0.161206 -0.126391 0.072959 
-0.021270 -0.058759 0.285877 
0.167315 -0.077875 -0.045374 
0.037723 -0.170120 -0.266101 
-0.341772 -0.310227 0.155493 
0.123755 -0.188399 0.122609 
0.382654 0.391540 -0.039569 
0.303231 0.444672 0.025413 
0.274919 0.453842 -0.128001 
0.254008 0.344578 -0.042414 
-0.108894 -0.029170 0.073554 
0.001530 -0.260766 0.094545 
-0.437797 -0.373696 -0.007657 
-0.044983 -0.234720 0.340791 
-0.131276 -0.375947 0.084105 
0.070434 -0.251704 0.194964 
-0.137783 -0.324643 0.082998 
0.135267 -0.118677 0.156402 
0.259225 0.062016 0.053329 
-0.196949 -0.229744 0.218863 
0.171160 0.051456 0.104346 
0.351031 0.371675 -0.085625 
0.010966 -0.238385 0.087451 
0.229531 0.058681 0.083155 
-0.249532 -0.474475 -0.112923 
0.013576 -0.294867 0.136303 
-0.034207 -0.198176 0.045694 
-0.019432 0.013389 0.155180 
0.015614 0.010069 0.159254 
0.073389 0.011343 0.137209 
0.270549 0.482796 -0.132194 
0.048222 0.104252 -0.178307 
-0.480989 -0.394718 -0.003207 
0.266841 0.461217 -0.036770 
-0.056209 -0.026999 -0.372705 
-0.102976 -0.021341 -0.457420 
0.176477 -0.019674 0.085922 
0.238254 0.101885 -0.113155 
0.311470 0.132268 0.046739 
0.029738 0.061944 -0.050118 
-0.269956 -0.273231 0.161106 
0.303938 0.476994 -0.049408 
-0.058040 -0.259560 0.331747 
0.206848 -0.066809 -0.106597 
0.002164 0.047437 -0.253828 
0.160487 0.038209 0.105787 
-0.260248 -0.437153 -0.046115 
-0.113403 -0.048512 0.058289 
-0.047931 -0.210814 -0.330800 
0.416392 0.426865 0.040414 
-0.089605 -0.128457 0.022657 
0.267073 0.046483 0.026183 
0.114965 0.177138 -0.069139 
-0.098304 -0.017826 -0.403181 
0.042763 -0.234520 0.309156 
0.216928 0.205122 -0.027371 
-0.267684 -0.437799 -0.039489 
0.042660 -0.041310 0.214608 
0.248217 0.378339 -0.051707 
-0.191929 -0.176894 0.285495 
-0.073314 -0.302771 0.069283 
-0.366616 -0.336442 0.104512 
0.269303 0.221235 -0.067066 
0.162235 -0.118327 0.026261 
-0.096036 -0.135727 0.342843 
0.274543 0.197328 0.086163 
-0.224602 -0.455340 -0.004436 
0.013746 0.057486 -0.022260 
0.106709 -0.129419 0.219265 
0.295379 0.105321 -0.066098 
0.314971 0.446532 -0.092053 
0.037178 -0.281431 0.148653 
-0.242420 -0.464925 -0.059111 
0.093817 -0.037267 -0.170515 
-0.210055 -0.151660 0.267206 
-0.225752 -0.419463 0.017380 
-0.232934 -0.458888 -0.000384 
0.326508 0.442042 -0.085547 
0.038391 -0.235069 0.112901 
-0.022822 -0.200275 0.036644 
0.391173 0.261112 0.017413 
-0.068483 -0.341016 0.076143 
0.321918 0.467780 -0.033077 
0.190334 0.181357 -0.021889 
0.385731 0.241329 0.023235 
0.017115 -0.070366 -0.108348 
-0.055447 -0.246815 0.125263 
0.050152 -0.225990 0.102094 
0.246873 0.128360 -0.098137 
0.111567 -0.045593 -0.191040 
0.127160 -0.148564 0.163793 
0.025031 0.099645 -0.169517 
0.053320 -0.111107 -0.186609 
-0.111707 -0.092995 0.052238 
0.104665 -0.084210 -0.095431 
0.248746 0.368732 -0.032722 
0.218280 0.173383 0.033820 
0.028253 -0.217242 0.322000 
0.202726 -0.061705 -0.011157 
0.091614 0.160538 -0.102320 
-0.370383 -0.310205 0.138654 
-0.267300 -0.484785 -0.073920 
0.378748 0.230161 0.064181 
0.114269 -0.179345 0.169071 
-0.076178 -0.029713 0.182856 
0.240439 -0.002847 -0.137010 
0.234683 0.470936 -0.143563 
0.036965 0.111887 -0.071333 
0.082721 -0.040581 -0.161314 
-0.093981 -0.063823 0.002994 
-0.007540 -0.015670 0.197201 
-0.214921 -0.184888 0.142221 
0.109715 0.082739 -0.176094 
-0.060366 -0.129694 0.339060 
-0.087375 -0.271767 0.152263 
-0.044290 -0.021296 0.207156 
0.196370 -0.050191 0.038173 
0.350936 0.375031 -0.086158 
0.109623 -0.189685 0.218524 
0.099903 -0.187204 0.252656 
-0.140110 -0.110096 0.316196 
0.234209 0.166634 0.073393 
0.015531 -0.241191 0.324234 
-0.268578 -0.454267 -0.012726 
0.329156 0.440797 0.033067 
-0.262537 -0.444375 -0.097409 
-0.085184 -0.357430 0.087634 
0.273531 0.128050 -0.086202 
-0.410084 -0.344425 0.097384 
-0.386234 -0.325980 0.072559 
-0.100831 -0.287566 0.162668 
0.028466 -0.228540 0.320054 
-0.050455 -0.016550 -0.339152 
-0.278897 -0.277075 0.180674 
0.149972 -0.097097 -0.037877 
0.011523 0.034271 -0.260505 
-0.093879 -0.003871 0.078788 
0.042295 -0.143963 -0.207105 
-0.380281 -0.342437 0.110257 
0.401006 0.317825 0.014193 
-0.096410 -0.288847 0.156438 
0.367737 0.222560 -0.000551 
0.100239 -0.104205 -0.177742 
0.072118 -0.133561 0.274552 
-0.113914 -0.271366 0.214889 
0.235116 0.027293 -0.149430 
-0.078125 -0.318075 0.260394 
-0.193213 -0.392723 0.061128 
0.028009 -0.129798 -0.260542 
0.145593 -0.082567 -0.176884 
-0.015577 -0.003601 0.179083 
-0.097146 -0.022848 -0.375968 
-0.116595 -0.107446 0.097702 
-0.185014 -0.187581 0.303334 
-0.433305 -0.379814 0.069866 
0.351294 0.324643 0.092111 
0.099712 -0.101504 0.211327 
-0.024680 -0.241101 -0.381640 
0.124405 -0.086710 -0.200472 
0.363027 0.414523 0.081942 
-0.074607 -0.314884 0.066271 
-0.046834 0.025712 -0.301192 
0.284923 0.439648 0.026884 
0.290171 0.484678 -0.061427 
-0.008062 0.001888 -0.284324 
0.008811 0.056641 -0.150291 
-0.116489 -0.360629 0.101374 
-0.215128 -0.420710 0.037058 
-0.114982 -0.114731 0.101729 
0.327231 0.148643 0.038062 
0.006930 0.005341 -0.247661 
0.085752 -0.226960 0.182588 
0.135858 -0.150104 0.146084 
0.204627 -0.023470 0.053035 
0.403868 0.306371 0.053321 
0.242307 0.067292 -0.133250 
0.213976 -0.037050 0.024137 
-0.045045 -0.333867 0.156514 
-0.222746 -0.202895 0.168440 
0.126566 0.121960 0.059136 
-0.272673 -0.475345 -0.056789 
-0.132017 -0.117766 0.132409 
0.402167 0.316749 0.062362 
-0.185247 -0.118585 0.282351 
0.109156 -0.192497 0.202163 
0.016030 -0.273497 0.307364 
0.164815 -0.075883 0.099235 
-0.058451 -0.021454 -0.337460 
-0.128185 -0.211454 0.333981 
0.017109 -0.220307 0.067781 
0.091034 0.146232 -0.010286 
0.002880 -0.313012 0.254119 
-0.429841 -0.386344 0.030496 
-0.244750 -0.166589 0.173106 
0.304046 0.235137 -0.056116 
0.033881 0.068963 0.065630 
0.101993 -0.211102 0.227274 
-0.230229 -0.156206 0.163095 
-0.093658 -0.154914 0.075683 
-0.030622 -0.064101 -0.078964 
0.287766 0.073668 -0.076899 
0.059093 -0.149385 0.292653 
-0.097836 -0.008252 -0.385743 
-0.027451 -0.248307 -0.368751 
-0.081142 -0.348509 0.073033 
-0.113954 -0.114272 0.094071 
-0.252087 -0.223145 0.132409 
0.037683 0.079921 0.009185 
-0.099049 -0.276777 0.162282 
0.080362 0.155438 -0.092977 
0.215769 0.469176 -0.108825 
0.068935 -0.070974 0.221060 
-0.270956 -0.478305 -0.065544 
0.355254 0.324995 -0.045641 
0.293901 0.106406 0.035568 
-0.041144 -0.143436 0.338421 
-0.032729 -0.202256 -0.377743 
0.042954 -0.081852 0.261796 
0.245294 0.075897 -0.125716 
0.296425 0.082611 -0.042336 
-0.109377 -0.127793 0.096289 
-0.191135 -0.176894 0.149090 
-0.245397 -0.189943 0.228012 
-0.051256 -0.189984 0.052773 
-0.111300 -0.046302 0.127798 
0.233774 0.105238 0.099344 
0.020748 0.030194 -0.119882 
0.018395 -0.264791 0.311607 
0.016621 0.035850 -0.126958 
0.333942 0.257629 0.101595 
0.022815 0.065158 -0.019409 
0.136632 -0.142846 0.147925 
0.439129 0.436964 0.030585 
-0.177429 -0.150781 0.306711 
-0.068222 0.007394 -0.339869 
-0.083049 -0.123149 0.004797 
0.266925 0.082423 -0.104884 
0.174206 -0.093937 0.016954 
-0.195638 -0.386768 0.041817 
0.098255 -0.216253 0.206262 
0.386423 0.436217 -0.001569 
-0.088580 -0.030106 -0.378513 
-0.098019 -0.298484 0.083315 
-0.139737 -0.067781 0.264582 
0.040419 -0.278312 0.148985 
-0.335695 -0.265942 0.119772 
-0.174656 -0.080010 0.199020 
-0.062617 -0.224249 -0.351232 
-0.333181 -0.316088 0.149474 
-0.029822 0.027669 -0.219648 
-0.041020 -0.252195 -0.361863 
-0.125184 -0.125003 0.332317 
-0.241648 -0.220726 0.137107 
0.242588 0.506807 -0.134778 
-0.069767 -0.017741 -0.017852 
0.090176 -0.192088 0.011703 
0.222371 0.197024 -0.050102 
0.225118 0.191028 -0.063500 
-0.173671 -0.224667 0.236498 
0.234810 -0.029506 -0.007805 
-0.453463 -0.403389 -0.033110 
0.108785 -0.190811 0.195176 
0.228921 0.060077 -0.143483 
-0.002044 0.046757 -0.023018 
0.347731 0.458393 -0.048688 
0.027758 -0.243365 0.103880 
-0.116784 -0.104962 0.095368 
0.153360 -0.145221 0.060479 
-0.127707 -0.251207 0.217239 
0.041815 0.123567 -0.078642 
-0.084915 0.006847 0.071893 
-0.043160 -0.254858 -0.374416 
0.072551 0.038212 0.110075 
0.278778 0.020414 -0.094355 
0.041269 -0.160191 0.308378 
-0.170566 -0.088508 0.245513 
-0.056070 -0.315397 0.282796 
-0.187420 -0.377786 0.037176 
0.104095 0.070162 -0.178826 
0.012483 -0.302803 0.272780 
0.072841 -0.061384 0.206227 
-0.490004 -0.380057 -0.006271 
-0.210791 -0.202674 0.144890 
-0.185678 -0.133623 0.293194 
-0.207992 -0.179387 0.144857 
0.034575 -0.111940 0.291413 
0.018318 0.093631 -0.149600 
-0.103667 -0.050099 0.181060 
-0.080417 -0.000409 0.129305 
-0.178622 -0.394907 0.015586 
-0.121898 -0.349046 0.047741 
0.172654 -0.084350 -0.014913 
-0.010567 -0.132828 0.325259 
-0.245509 -0.183705 0.224761 
-0.309781 -0.285206 0.117758 
0.137487 0.055455 0.104645 
0.050106 -0.280168 0.243799 
0.050230 -0.034119 -0.141686 
-0.007321 -0.168863 -0.286908 
0.160687 0.091544 -0.152300 
0.046245 -0.145942 0.300458 
0.279702 0.310746 -0.052412 
-0.063415 0.026013 0.054454 
0.045653 0.133962 -0.108822 
0.301837 0.100099 -0.048133 
-0.190435 -0.423974 0.011528 
0.052588 -0.250941 0.144980 
0.048060 -0.075340 0.249965 
0.061965 0.015835 0.137814 
-0.160532 -0.403402 0.045116 
0.404354 0.306951 0.029208 
0.123554 -0.087491 -0.128857 
0.125187 -0.163840 0.159890 
-0.182516 -0.411839 0.056724 
0.083410 -0.114541 -0.173861 
0.293211 0.137629 0.094316 
-0.116096 -0.316166 0.086899 
0.388290 0.334720 -0.006029 
-0.061479 -0.331133 0.216529 
-0.063101 -0.045668 -0.042150 
0.391789 0.385459 -0.016091 
0.289101 0.270914 -0.047654 
-0.178137 -0.103391 0.272849 
-0.207882 -0.436572 0.016632 
-0.031875 -0.032935 -0.074413 
0.374343 0.413618 -0.049363 
-0.011422 0.000556 -0.234807 
0.242646 0.150370 0.092773 
0.023813 -0.089195 0.284678 
0.136516 -0.118298 -0.031712 
-0.204168 -0.435715 0.006287 
0.063282 -0.065581 0.222022 
-0.027435 0.036907 -0.006902 
0.334025 0.153272 0.010697 
0.020424 0.097432 -0.100051 
0.049446 -0.054524 0.225727 
0.038147 0.057424 0.088915 
-0.098319 -0.170627 0.125239 
-0.450904 -0.402314 -0.012467 
-0.094499 -0.232859 0.329727 
-0.204565 -0.403445 0.045490 
0.225537 0.213264 -0.022216 
-0.081780 -0.307020 0.274743 
-0.218562 -0.124465 0.188664 
0.284314 0.028964 -0.036958 
0.337611 0.443560 -0.069961 
0.205349 -0.045358 -0.147500 
0.118563 0.170819 -0.110001 
-0.210479 -0.195286 0.265392 
0.280319 0.308401 -0.031953 
0.250857 0.226753 -0.033997 
-0.165599 -0.147852 0.316512 
-0.174494 -0.083877 0.216282 
0.292511 0.195738 0.101528 
0.250019 0.365944 -0.049084 
0.272723 0.039925 -0.115231 
0.114282 -0.200108 0.103523 
0.010273 0.015945 -0.185675 
0.085655 -0.189757 0.004737 
0.288618 0.475197 -0.035581 
0.350353 0.450999 -0.001886 
-0.031349 -0.192989 -0.291950 
0.088790 0.046609 -0.178478 
0.000194 0.028930 -0.048791 
0.131763 -0.079386 -0.101186 
0.001668 -0.138761 0.321554 
0.009290 -0.195708 0.008804 
-0.221521 -0.411451 0.004648 
0.013310 -0.070698 -0.105440 
-0.032582 -0.298292 0.307218 
-0.082923 -0.134682 0.014749 
0.390249 0.418857 -0.025072 
-0.185617 -0.159857 0.298307 
-0.279724 -0.454461 -0.032187 
0.113800 -0.140773 -0.032210 
0.171843 0.153348 -0.119032 
0.073920 0.076835 0.068922 
0.077571 0.153571 -0.070241 
0.165740 -0.088666 0.093815 
0.000674 -0.149361 0.325455 
-0.474064 -0.363831 -0.051322 
-0.108762 -0.247221 0.159277 
0.063089 -0.189136 -0.005639 
0.136578 -0.147240 0.006427 
0.403633 0.327355 0.057441 
0.195586 0.007145 0.081860 
-0.490747 -0.366844 -0.023992 
0.093258 -0.198028 0.025900 
0.190041 0.155253 0.038831 
0.000486 0.058824 0.073891 
-0.072198 -0.273956 0.108634 
0.371817 0.213730 0.018915 
0.032391 -0.018780 -0.135401 
0.154738 -0.143287 0.080117 
-0.191472 -0.381601 0.040824 
0.171105 0.182458 -0.034477 
0.006518 -0.172961 -0.302113 
0.053034 -0.076142 -0.127370 
-0.181304 -0.140481 0.300761 
-0.233089 -0.464586 -0.009385 
0.224255 0.507769 -0.108190 
0.221222 0.165296 0.059523 
0.172530 0.054840 0.103977 
-0.018503 0.031567 -0.295019 
-0.206245 -0.404754 0.042836 
-0.113616 -0.267436 0.175182 
-0.000827 -0.278139 0.312117 
0.219918 0.198567 -0.004246 
0.031375 -0.114162 -0.231292 
0.062317 -0.137177 -0.202750 
0.275929 0.396935 -0.092852 
-0.124188 -0.344876 0.048265 
0.031309 -0.047536 0.234952 
0.164186 -0.069337 0.100925 
-0.061320 -0.002150 0.159430 
-0.015824 0.036242 -0.023712 
0.083710 -0.043551 0.178700 
0.019167 -0.307921 0.238920 
0.076211 0.152658 -0.073203 
0.262391 0.095610 -0.102311 
-0.077575 0.004811 0.027406 
-0.306044 -0.273606 0.188572 
-0.038906 0.014245 -0.023690 
0.120043 0.156193 0.010455 
-0.023735 -0.086461 -0.075923 
0.292930 0.174420 0.106042 
0.161083 -0.127110 0.052533 
0.018113 0.044733 -0.243123 
0.324665 0.208032 0.108586 
-0.199066 -0.429002 0.022593 
0.112342 0.065257 0.090212 
0.053676 -0.256622 0.153347 
0.059653 0.142330 -0.079386 
0.182358 -0.063228 0.056965 
-0.348609 -0.300567 0.158069 
-0.100864 -0.103649 0.327112 
0.346244 0.294470 -0.038866 
0.314360 0.331861 -0.072628 
-0.003491 -0.242536 0.332546 
-0.091703 -0.326540 0.165990 
0.154146 0.078692 0.098739 
0.136667 0.108968 0.073552 
0.163845 0.083787 0.098755 
-0.414629 -0.351637 0.033836 
0.159508 0.026365 0.106113 
-0.095355 -0.201669 0.138338 
0.016301 -0.005192 0.177651 
0.066909 -0.259202 0.252209 
0.257168 0.011972 0.015300 
0.001453 -0.164837 -0.258726 
-0.137535 -0.244955 0.261929 
-0.179079 -0.198722 0.187723 
0.018454 -0.294006 0.142779 
0.166393 0.052233 -0.171505 
-0.125695 -0.162566 0.136705 
0.165721 0.183435 -0.059441 
0.202536 0.046315 0.095246 
0.032930 -0.193487 0.319221 
-0.071119 -0.337080 0.141744 
0.171726 -0.075598 0.079861 
0.151973 0.113412 -0.147941 
-0.074212 -0.225660 -0.375151 
0.043826 0.048972 -0.205441 
0.026336 -0.048285 0.241306 
0.089317 -0.097731 -0.079077 
-0.227345 -0.189655 0.138101 
-0.078116 -0.169830 0.348543 
0.102434 -0.085077 0.194980 
0.252997 0.060361 0.060084 
-0.075792 -0.104251 0.329561 
0.138904 0.173731 -0.107274 
-0.248265 -0.180760 0.217201 
-0.132060 -0.226107 0.321153 
-0.052712 -0.167359 0.014753 
-0.085802 -0.285520 0.122313 
-0.102963 -0.343278 0.056514 
0.311790 0.366941 0.034548 
0.308264 0.198368 -0.059241 
-0.072606 -0.212894 0.128362 
0.045082 -0.016452 -0.144243 
-0.278929 -0.226152 0.189746 
0.044737 -0.273951 0.151181 
-0.113639 -0.038304 0.083402 
0.019920 0.046394 -0.051405 
0.316916 0.237139 0.100318 
0.001648 -0.036682 0.247263 
0.378385 0.324415 0.090709 
-0.004333 -0.151487 -0.042557 
0.000931 0.006008 -0.222814 
-0.165415 -0.119275 0.146654 
0.322633 0.468553 -0.044473 
0.019361 0.021546 -0.122967 
-0.035124 -0.217941 0.070728 
0.291720 0.133400 0.090783 
0.212155 -0.056364 -0.052856 
0.252671 0.202866 0.061750 
-0.014270 -0.310924 0.270327 
0.364048 0.296216 -0.018372 
0.136467 -0.089803 -0.162117 
0.030005 -0.085979 -0.107148 
0.002592 -0.034306 0.241585 
0.039289 0.104531 -0.054240 
-0.140076 -0.373071 0.100276 
0.110211 0.087168 -0.175028 
0.390749 0.431845 0.035157 
0.370702 0.242384 0.097090 
0.191909 -0.044373 0.052656 
0.318290 0.406734 0.055873 
-0.067914 -0.222023 0.128444 
0.001219 -0.313453 0.171483 
-0.065226 -0.003041 0.157059 
0.070977 -0.218937 0.286903 
-0.461612 -0.353304 -0.025806 
0.025399 -0.024501 0.202735 
0.106776 -0.036344 -0.179239 
-0.015118 0.044877 -0.231291 
-0.146022 -0.395591 0.054949 
-0.311841 -0.289639 0.186582 
-0.080500 -0.131920 0.008016 
-0.016225 -0.153139 0.333488 
0.257899 0.134481 -0.091861 
0.424195 0.426775 0.010838 
-0.028896 0.027341 0.130590 
0.109195 -0.173299 0.002152 
-0.152770 -0.348227 0.103902 
0.003348 0.052205 -0.171866 
-0.453175 -0.353987 0.049099 
-0.149552 -0.340844 0.051352 
0.251354 -0.013499 -0.111394 
-0.096923 -0.028548 -0.457956 
-0.049980 -0.266101 0.329492 
-0.072289 0.015497 0.104165 
-0.018393 -0.322838 0.235320 
-0.107763 -0.027226 0.071306 
-0.142098 -0.163339 0.142566 
0.310028 0.107910 -0.020325 
0.032019 -0.212653 0.041652 
-0.117641 -0.192535 0.344373 
-0.070413 -0.257458 0.139162 
0.373715 0.290196 0.098637 
-0.069927 -0.349062 0.099559 
0.115207 -0.153266 0.198626 
-0.194123 -0.120288 0.271193 
0.004381 -0.178237 -0.307159 
0.057532 -0.127317 -0.261162 
-0.498589 -0.377621 -0.027089 
-0.206357 -0.161967 0.147327 
0.032303 -0.289865 0.271597 
0.082845 -0.133775 -0.241037 
0.326638 0.189323 -0.047945 
0.384461 0.355147 -0.015603 
0.014157 -0.285803 0.121644 
-0.139105 -0.173517 0.340878 
-0.090535 -0.292964 0.122011 
0.245846 0.003813 0.029918 
0.375625 0.431008 0.041927 
0.309008 0.173159 -0.059819 
0.003545 -0.176093 0.331124 
0.020243 0.054714 0.092429 
0.338675 0.430282 -0.084180 
0.319827 0.144490 0.053118 
0.095524 -0.136968 0.248704 
-0.154152 -0.390454 0.082131 
-0.120053 -0.379621 0.073995 
0.268083 0.254446 -0.007369 
-0.118712 -0.232577 0.316294 
-0.209823 -0.111869 0.201735 
-0.000480 0.016979 -0.189315 
0.215567 0.183702 -0.066324 
0.286092 0.028454 -0.050823 
0.098399 -0.203048 0.180873 
-0.182610 -0.380147 0.075372 
0.018274 -0.244594 0.321555 
0.071352 -0.145367 0.280946 
0.132654 -0.153988 0.009208 
-0.040098 -0.011604 -0.294782 
-0.291259 -0.492142 -0.094862 
0.106479 0.100424 -0.173008 
0.051557 0.089888 0.013371 
0.347844 0.421447 0.091955 
0.018769 0.092687 -0.135658 
0.050881 -0.207069 0.025347 
0.085437 0.016328 0.127957 
0.124754 0.080229 -0.171526 
-0.057030 -0.190287 0.347497 
0.314873 0.132768 0.036458 
0.046066 -0.159158 -0.266008 
-0.184147 -0.106484 0.267785 
-0.443719 -0.376806 -0.036131 
0.301163 0.277847 -0.053291 
-0.046716 0.031244 -0.279688 
0.127128 0.167373 -0.119310 
0.130918 -0.089152 -0.183227 
-0.172898 -0.088091 0.158779 
0.311026 0.260247 -0.051450 
-0.201295 -0.147779 0.153818 
-0.189038 -0.202781 0.159685 
0.012753 -0.159820 0.323381 
-0.164017 -0.126062 0.310122 
-0.100749 -0.133314 0.058826 
0.062995 -0.237231 0.288925 
-0.391517 -0.334136 0.065961 
0.282996 0.329343 -0.069784 
-0.065973 -0.029641 -0.391674 
0.011599 -0.149567 -0.272862 
-0.041298 -0.318881 0.253569 
0.222148 0.175766 -0.087767 
-0.221263 -0.428434 0.030099 
0.075571 -0.067001 -0.198783 
-0.181034 -0.136607 0.299623 
0.232758 0.192884 -0.072821 
0.049118 -0.280133 0.206112 
-0.188616 -0.095915 0.168173 
0.305750 0.150573 0.095764 
0.241379 0.456420 -0.069740 
0.018632 -0.293997 0.283686 
-0.373880 -0.296377 0.104734 
0.320815 0.467325 -0.030021 
0.278611 0.264489 0.019044 
-0.088021 -0.085659 -0.006813 
0.184956 -0.078019 -0.086218 
0.046699 -0.164234 0.305848 
-0.112942 -0.041938 0.114458 
0.078363 -0.132459 -0.248337 
0.217860 0.186716 -0.062759 
-0.015510 -0.206138 0.043185 
-0.017202 -0.058993 -0.090673 
0.167981 0.182132 -0.028572 
-0.141971 -0.384114 0.079049 
-0.044085 -0.020832 0.219078 
0.221742 0.133590 0.089030 
-0.068080 -0.340292 0.164531 
0.044447 -0.056758 0.233275 
-0.072871 -0.213716 0.345841 
-0.069217 0.006073 -0.326117 
0.296096 0.126734 0.071668 
0.090084 -0.123643 -0.214297 
0.276531 0.222482 -0.066829 
-0.002974 -0.093718 0.303363 
-0.151320 -0.233381 0.222449 
0.229718 -0.010346 -0.141188 
0.135226 0.177890 -0.097960 
-0.262590 -0.439402 -0.018901 
0.007411 -0.299413 0.283818 
0.221845 0.085983 -0.133842 
-0.254228 -0.480374 -0.023711 
-0.035769 0.034881 -0.285564 
-0.489989 -0.375273 -0.035326 
-0.134108 -0.087187 0.299082 
0.389859 0.327502 -0.004330 
-0.165031 -0.086909 0.263664 
-0.114169 -0.067452 0.052656 
0.399995 0.322374 0.011463 
0.343572 0.164766 -0.016268 
-0.493682 -0.392149 -0.024399 
0.324707 0.216685 0.107142 
-0.009127 -0.177724 -0.309844 
-0.333398 -0.276356 0.153633 
0.010024 -0.053238 0.262634 
0.165165 0.183648 -0.040120 
-0.104094 -0.039986 -0.447980 
0.035201 -0.172121 -0.269792 
-0.220390 -0.203413 0.171936 
-0.035882 -0.050272 0.280492 
-0.415936 -0.379494 0.040095 
0.165006 -0.117775 0.056331 
0.265941 0.012805 -0.116693 
-0.002601 -0.051243 0.269711 
-0.235082 -0.222521 0.161217 
-0.131845 -0.242595 0.288087 
0.011680 -0.178936 -0.249593 
0.209199 0.191391 -0.051862 
0.320183 0.372639 -0.097114 
0.269993 0.245801 0.030509 
0.308947 0.453685 -0.092172 
-0.028153 0.049670 0.054065 
-0.033346 -0.299817 0.094488 
0.294124 0.058578 -0.045737 
0.109902 -0.125467 0.207908 
0.046738 -0.146825 -0.209359 
-0.005097 0.044286 -0.023620 
-0.404557 -0.367901 0.059811 
-0.153387 -0.198119 0.154896 
-0.221865 -0.148672 0.164882 
-0.331186 -0.272283 0.114558 
-0.223268 -0.211215 0.172300 
-0.131042 -0.198048 0.339453 
-0.019148 0.053850 0.039268 
-0.112196 -0.366068 0.058146 
0.316231 0.376625 -0.097114 
-0.105969 -0.154089 0.346870 
-0.008189 -0.001082 0.175686 
-0.323785 -0.258219 0.122880 
0.082960 -0.165120 -0.027248 
0.047840 0.135878 -0.105017 
0.037305 -0.290821 0.217206 
0.070882 0.034026 0.115518 
0.266008 0.375348 -0.076046 
-0.047101 -0.016617 0.189039 
0.129406 -0.123339 -0.034528 
-0.033936 -0.204120 -0.403492 
-0.319312 -0.304126 0.172885 
-0.075681 0.001832 -0.440509 
0.048326 0.128129 -0.131994 
-0.020151 -0.186442 -0.281138 
0.182141 0.178492 -0.016821 
0.336446 0.439106 -0.078564 
0.203215 -0.011161 0.064333 
0.399024 0.354553 0.067675 
-0.111754 -0.259386 0.167245 
-0.037242 0.011009 -0.029665 
0.337848 0.288424 0.095470 
-0.044700 -0.213333 -0.299414 
-0.329988 -0.289134 0.110268 
0.116040 0.072465 0.087321 
0.092987 0.163095 -0.051523 
0.307301 0.409767 0.043504 
0.095190 0.140951 0.005035 
-0.029993 0.014733 0.151015 
0.004574 -0.202223 0.022892 
0.111852 0.174166 -0.056132 
0.030266 0.051488 0.098547 
0.319806 0.300631 -0.052909 
-0.214941 -0.134966 0.170383 
-0.105204 -0.280043 0.245783 
-0.087725 -0.281206 0.299298 
-0.147897 -0.126068 0.321391 
-0.157072 -0.101241 0.296453 
-0.008871 -0.256119 0.329698 
0.313460 0.162596 -0.057654 
0.052285 -0.081447 0.251536 
0.101946 -0.185184 0.011819 
0.297526 0.398096 0.033728 
0.350868 0.399842 -0.086218 
0.146459 -0.160991 0.080788 
0.269946 0.450574 -0.127570 
-0.156056 -0.090699 0.284777 
0.084789 -0.044871 -0.166472 
0.405554 0.342840 0.047768 
0.208886 0.188163 -0.056669 
0.237559 0.219580 -0.001532 
-0.113538 -0.208641 0.338459 
0.138536 -0.110603 -0.037665 
0.145194 -0.070896 -0.189298 
-0.403918 -0.362082 0.085483 
0.072419 -0.080137 -0.222553 
0.080050 -0.035965 -0.160291 
-0.262294 -0.198809 0.130873 
-0.169497 -0.381622 0.093303 
0.027210 -0.155568 -0.282079 
0.273048 0.031785 0.001941 
0.025776 0.110716 -0.106630 
0.092577 -0.195649 0.020381 
0.185178 -0.005404 0.083716 
-0.018491 0.045534 -0.238303 
0.065868 -0.259349 0.255733 
-0.090738 -0.247806 0.322848 
0.061808 0.123972 -0.028379 
0.366787 0.403404 -0.065650 
-0.120911 -0.073192 0.089389 
0.172856 -0.003837 -0.184768 
0.059841 0.001309 -0.159957 
0.295889 0.138185 0.092045 
0.014205 -0.002576 -0.102941 
0.133369 -0.117958 -0.035780 
-0.277258 -0.249181 0.191586 
-0.265037 -0.269866 0.159662 
-0.121830 -0.068261 0.105277 
-0.067175 -0.215965 -0.384473 
0.296161 0.132215 -0.070571 
-0.269348 -0.233311 0.197148 
0.383182 0.343285 0.083331 
-0.078235 -0.269966 0.134717 
-0.008789 -0.310668 0.269305 
0.277236 0.180010 -0.075489 
-0.134077 -0.073761 0.281755 
-0.019366 -0.224669 -0.380403 
0.272444 0.330398 -0.012074 
-0.140404 -0.065475 0.249809 
0.360897 0.424078 -0.062387 
0.155228 -0.090289 -0.038602 
-0.121248 -0.366397 0.049052 
-0.182189 -0.202120 0.197880 
0.063184 0.064951 0.079321 
-0.053128 -0.258529 0.107366 
-0.026150 -0.107022 -0.063242 
0.387982 0.246260 0.055438 
-0.010663 0.003720 -0.224128 
0.312020 0.417642 0.043110 
0.244043 0.148293 0.094745 
-0.187913 -0.390831 0.068471 
0.112065 0.152569 -0.136121 
-0.285388 -0.210636 0.179264 
0.282223 0.208231 0.086305 
-0.005436 -0.295933 0.294491 
0.211791 -0.060096 -0.065209 
0.086236 0.119616 0.025477 
0.069520 -0.095526 -0.096433 
-0.034468 -0.094704 0.317320 
0.138737 -0.031958 -0.185499 
-0.455055 -0.355744 0.042880 
0.276454 0.101690 0.064050 
-0.452776 -0.374123 -0.055824 
-0.197516 -0.180015 0.275299 
0.305707 0.473469 -0.036854 
0.161537 -0.126300 0.057153 
0.157360 -0.129615 0.099573 
-0.194177 -0.421778 0.042199 
-0.332410 -0.274122 0.148589 
0.253933 0.176024 0.082608 
0.026882 -0.292921 0.158469 
-0.020458 -0.111516 -0.063725 
0.096220 -0.187246 0.009245 
0.040923 -0.103401 -0.223009 
0.280648 0.118669 -0.084029 
0.002400 0.009666 0.161409 
-0.054614 -0.010941 -0.289336 
-0.206167 -0.126263 0.165963 
-0.036431 -0.327497 0.202578 
0.038303 -0.132499 0.299540 
-0.464218 -0.377638 -0.050785 
0.015016 0.071619 -0.096979 
0.256287 -0.011510 -0.104261 
0.242534 0.487294 -0.072362 
0.306168 0.102684 -0.035402 
0.114290 -0.157778 0.204916 
-0.144306 -0.069058 0.259239 
-0.063657 -0.239189 0.339190 
-0.110244 -0.163039 0.129441 
-0.181391 -0.209224 0.217847 
0.228757 0.026814 -0.152523 
-0.205417 -0.240491 0.239756 
0.115605 0.176331 -0.059289 
0.247462 0.450422 -0.058139 
0.115928 -0.042510 0.149531 
-0.381053 -0.308636 0.087232 
0.292906 0.048211 -0.046657 
-0.051343 -0.324099 0.241383 
0.404686 0.346940 0.051360 
0.021911 -0.169087 -0.239914 
0.117151 -0.197491 0.097729 
0.084290 -0.191866 0.007223 
-0.034734 -0.240011 -0.344869 
0.109355 0.072746 -0.177651 
0.032764 0.121133 -0.109808 
-0.019164 -0.005156 -0.063598 
0.177839 0.121072 -0.130718 
0.181605 -0.047792 0.068724 
0.143955 0.179527 -0.020900 
0.185134 0.024319 0.096457 
-0.024846 -0.272645 0.326461 
0.121809 0.164410 -0.001179 
-0.243321 -0.166428 0.165518 
0.223047 0.188832 0.009389 
-0.262336 -0.481429 -0.031416 
-0.122875 -0.321253 0.090564 
-0.118297 -0.052347 0.091531 
0.340892 0.436424 -0.075944 
-0.427699 -0.369765 0.014947 
-0.149135 -0.243955 0.278601 
-0.204195 -0.232273 0.259400 
0.314019 0.285217 -0.052294 
0.284768 0.441703 0.024264 
0.007773 -0.213488 0.049506 
0.156026 -0.085469 0.118775 
-0.000807 -0.217149 0.061644 
0.141137 -0.038047 0.125720 
-0.087536 -0.028631 -0.401438 
0.251858 0.045752 -0.136879 
0.345018 0.333332 0.088264 
-0.227010 -0.456988 -0.039491 
0.276089 0.088647 0.046202 
-0.128534 -0.325220 0.109028 
-0.052765 0.009192 -0.351949 
-0.232142 -0.210705 0.159943 
0.309604 0.344096 0.035706 
0.043919 -0.114205 -0.197059 
0.087580 -0.222954 0.258596 
-0.124362 -0.215059 0.332691 
0.126444 -0.126024 0.170468 
0.262023 0.356583 -0.011222 
-0.251789 -0.204785 0.130576 
-0.119297 -0.078539 0.075388 
0.365440 0.417091 0.078669 
-0.339595 -0.322532 0.130063 
-0.322671 -0.313090 0.130100 
-0.040516 -0.206570 0.065328 
0.274768 0.253497 0.029943 
0.260331 0.473717 -0.051718 
-0.024353 -0.324881 0.151303 
-0.196670 -0.209906 0.199108 
-0.094976 -0.279384 0.160525 
-0.034792 0.042521 0.085118 
0.006126 -0.312296 0.185547 
0.274705 0.447845 -0.010339 
-0.050424 -0.062671 -0.059605 
0.017225 0.009111 -0.141582 
-0.099356 -0.013169 0.101723 
0.200290 -0.050280 0.029532 
0.044162 0.106649 -0.044818 
-0.194788 -0.221752 0.282180 
-0.145872 -0.379688 0.096131 
-0.092552 -0.281098 0.157392 
0.048067 -0.280001 0.217443 
0.390145 0.338842 -0.004430 
-0.465495 -0.392248 0.004310 
0.256235 0.068011 0.063028 
-0.020009 0.042936 0.102353 
0.024480 0.065494 -0.022090 
-0.035964 -0.079581 -0.069578 
-0.376386 -0.313356 0.133515 
0.265936 0.244348 0.020361 
0.077951 0.113775 0.019961 
0.267667 0.231918 0.053351 
-0.458132 -0.364847 0.052001 
0.024432 0.072267 0.010216 
0.208443 0.179583 0.002326 
0.148263 -0.064210 -0.190343 
-0.136999 -0.241305 0.291642 
0.044504 0.039993 -0.199181 
0.241276 -0.031726 -0.064292 
0.037994 -0.000269 0.165680 
0.381483 0.444139 -0.038734 
-0.056704 -0.334240 0.136464 
0.326561 0.464512 -0.053518 
-0.125972 -0.143074 0.339541 
0.364024 0.276085 0.102097 
0.015808 0.054624 0.091888 
0.057562 -0.261780 0.273390 
0.180583 0.107621 0.086769 
0.009304 -0.024224 0.215004 
-0.052834 -0.073373 -0.055926 
-0.061059 -0.231203 0.342074 
0.242079 0.479150 -0.069014 
-0.260739 -0.480770 -0.067971 
0.119142 0.176613 -0.049518 
-0.026805 -0.233754 -0.334840 
-0.111820 -0.085821 0.048615 
-0.230314 -0.206348 0.159226 
0.344079 0.282219 -0.036316 
0.014493 0.037533 0.120760 
0.089603 -0.182395 -0.003187 
0.039073 -0.004812 0.170551 
-0.000672 0.000286 -0.253363 
0.096616 -0.190129 0.258666 
-0.454181 -0.362313 -0.039213 
0.260072 0.238302 -0.028531 
0.232190 0.512020 -0.124782 
0.301455 0.439990 -0.107789 
-0.018367 0.054547 0.055110 
0.311780 0.254991 0.089882 
-0.059922 -0.013063 -0.396092 
0.215941 -0.016938 0.045935 
0.100830 -0.195627 0.173233 
0.374843 0.376834 -0.052474 
0.234925 0.198594 -0.066602 
0.293605 0.109557 0.043081 
-0.237541 -0.476438 -0.034104 
0.075201 0.004879 0.142754 
-0.030841 -0.223954 -0.400851 
-0.454225 -0.366728 0.062195 
-0.091629 -0.026650 0.156145 
0.109902 -0.182502 0.185727 
0.355416 0.389262 0.073246 
0.020932 0.078738 -0.078786 
0.170845 0.165398 0.024749 
0.329231 0.453705 -0.067359 
-0.128462 -0.057455 0.207911 
0.201705 -0.056344 0.012437 
0.025928 -0.206340 0.323820 
0.011799 -0.091701 -0.092707 
0.142084 -0.147010 0.018183 
0.031026 -0.131014 0.303428 
0.043401 -0.138681 -0.059610 
0.062129 -0.134049 -0.197960 
0.287596 0.052158 -0.016018 
-0.102719 -0.336944 0.133235 
0.354725 0.429747 0.090521 
-0.083457 -0.196407 0.347470 
0.072831 0.050549 -0.179852 
0.109259 0.045263 -0.180338 
0.044510 -0.164170 -0.037175 
0.086720 -0.132095 -0.220724 
-0.154879 -0.087913 0.149741 
0.159443 0.177041 -0.005584 
0.096824 0.033029 0.110577 
0.372392 0.258625 0.099604 
0.284596 0.268528 -0.043013 
0.080966 -0.097626 -0.085298 
0.009009 0.070020 -0.171739 
-0.085884 -0.123099 0.009766 
0.092641 -0.105998 -0.160603 
0.154456 -0.087778 0.122168 
-0.165650 -0.358589 0.042482 
0.087284 -0.115259 0.243640 
0.003940 -0.209223 -0.297992 
-0.076325 -0.015049 -0.474569 
0.270680 0.414773 0.006508 
0.032652 -0.163219 -0.038870 
-0.160809 -0.345428 0.053827 
0.217208 -0.015058 -0.148971 
-0.092132 -0.001489 -0.473787 
-0.120713 -0.253292 0.267089 
0.096454 -0.214449 0.192450 
-0.008326 0.049953 0.092700 
0.175854 0.177749 -0.077619 
0.226367 0.469527 -0.140621 
-0.028638 0.005896 -0.043701 
-0.115267 -0.270335 0.189303 
-0.002963 -0.213729 -0.320467 
0.040813 -0.285200 0.262700 
-0.119869 -0.058754 0.096793 
-0.082527 -0.333316 0.172247 
-0.113967 -0.271761 0.210655 
0.394650 0.266325 0.059248 
-0.087848 -0.255728 0.148119 
-0.098039 -0.016828 -0.368440 
0.251868 0.231276 -0.027905 
-0.090464 -0.159866 0.348228 
-0.024064 -0.073621 0.299716 
-0.147680 -0.155353 0.142121 
0.134797 0.039663 -0.181148 
-0.045227 -0.207861 -0.401244 
0.023287 -0.180752 0.322868 
0.189336 -0.076978 -0.095120 
-0.000728 -0.257525 0.325095 
0.241181 0.070111 -0.132202 
0.416763 0.430653 0.038186 
-0.037200 -0.226842 -0.298436 
-0.027299 0.049821 0.061903 
0.290833 0.395836 0.023320 
-0.100474 -0.259712 0.302965 
0.312836 0.207635 -0.055805 
-0.078030 -0.038471 -0.443872 
0.073130 -0.097248 -0.115200 
-0.061468 -0.014796 0.176901 
-0.026528 -0.092830 -0.071223 
0.166814 0.182674 -0.031599 
0.004821 0.036301 -0.148784 
-0.272342 -0.459117 -0.015765 
-0.072038 -0.335036 0.195839 
0.227568 0.015725 0.063161 
-0.067029 -0.343166 0.080341 
0.065315 0.127546 -0.147893 
-0.277773 -0.228567 0.191112 
0.227066 0.511902 -0.110608 
-0.079572 -0.010295 0.150796 
-0.242158 -0.165015 0.180361 
-0.117731 -0.131779 0.123503 
-0.099815 -0.274485 0.284004 
-0.128185 -0.170419 0.344925 
0.071643 0.077358 -0.183576 
0.109067 0.123704 0.046567 
-0.080275 -0.283982 0.090737 
-0.024432 -0.164034 0.338335 
0.294384 0.067368 -0.049630 
0.119565 -0.001707 -0.181521 
0.011005 -0.005037 -0.100379 
-0.094843 0.010030 -0.459274 
0.019860 0.034999 0.124341 
-0.445893 -0.397865 -0.028395 
0.029587 -0.162742 -0.283182 
-0.108843 -0.283660 0.198213 
0.230954 0.137156 0.092962 
-0.012797 0.018308 0.148957 
-0.277925 -0.278991 0.155996 
0.203765 0.191092 -0.047351 
0.053344 -0.190929 0.306160 
-0.146690 -0.244988 0.273762 
-0.113399 -0.115636 0.331390 
0.325178 0.403849 0.075377 
-0.053788 0.013748 0.138457 
-0.461365 -0.360778 0.017264 
-0.073721 -0.032136 -0.390572 
-0.253870 -0.207919 0.215559 
0.347026 0.455348 -0.012115 
-0.097048 -0.298216 0.137752 
-0.228631 -0.206030 0.249369 
0.011884 -0.302895 0.171085 
0.140808 0.081013 -0.164845 
-0.101464 -0.194207 0.346058 
-0.283852 -0.225378 0.184419 
0.096460 -0.212493 0.188814 
-0.259059 -0.446483 -0.070079 
0.059567 -0.268755 0.249576 
-0.483201 -0.374219 -0.040973 
0.218150 0.499090 -0.112276 
-0.440936 -0.389073 0.005350 
-0.018658 -0.317750 0.252917 
-0.107344 -0.211497 0.147045 
-0.210016 -0.412381 0.041716 
0.007359 -0.224175 0.075866 
0.020559 0.064012 0.072158 
-0.159766 -0.092340 0.282801 
0.089355 0.163278 -0.073888 
0.340218 0.415288 0.087346 
-0.069858 -0.326624 0.246145 
0.374157 0.215440 0.040825 
-0.118649 -0.106079 0.323740 
0.151922 0.079053 -0.161618 
0.129637 -0.111982 0.165277 
-0.096398 -0.008519 0.098588 
-0.004579 -0.047794 0.266805 
-0.122478 -0.087556 0.107235 
0.086153 -0.110666 0.241012 
0.099990 -0.003905 0.136508 
0.248954 0.471032 -0.145183 
-0.117306 -0.311457 0.129081 
0.248143 0.387141 -0.056969 
0.059805 -0.154651 -0.043407 
0.001848 0.033638 -0.159546 
0.020239 0.101352 -0.108252 
-0.377334 -0.295894 0.116694 
-0.077441 -0.001808 0.013679 
0.286792 0.280109 0.009996 
0.181788 0.154406 0.041578 
-0.016869 -0.296120 0.299136 
0.157924 -0.101014 -0.019763 
0.106315 -0.021439 -0.175917 
0.299039 0.213489 0.099070 
-0.202935 -0.143310 0.275790 
0.408230 0.421378 0.012648 
0.244384 0.497981 -0.078966 
-0.000212 -0.173194 -0.304097 
0.047412 -0.083158 -0.120432 
-0.106458 -0.117601 0.057312 
-0.092123 -0.024073 -0.395275 
0.200301 -0.064432 -0.019115 
0.305243 0.310943 0.059632 
-0.071729 -0.100666 0.327400 
-0.320807 -0.267541 0.117283 
-0.041199 0.006458 -0.030291 
-0.451320 -0.389322 0.043206 
0.038110 0.126337 -0.119419 
-0.054510 0.033720 0.064027 
-0.082828 -0.300540 0.282201 
0.028640 -0.276895 0.126172 
0.082171 0.134394 -0.139289 
0.154594 -0.084901 -0.156331 
0.092662 0.165185 -0.068170 
-0.091363 -0.029967 -0.412210 
-0.287624 -0.480231 -0.079541 
0.042466 -0.216684 0.053312 
-0.064378 -0.005768 -0.014179 
0.294370 0.237627 0.082751 
-0.099858 -0.049327 0.267457 
0.322190 0.465002 -0.023121 
-0.008578 0.044240 0.106124 
0.424937 0.407007 0.019458 
0.237001 0.464405 -0.075920 
0.399422 0.414584 0.037562 
-0.078777 -0.297650 0.291808 
0.023320 0.105295 -0.103702 
0.362863 0.298720 -0.020198 
0.368530 0.340422 -0.040345 
0.097815 -0.211813 0.097960 
-0.253268 -0.187581 0.209731 
0.129274 -0.043639 -0.189252 
0.089095 -0.121693 -0.060155 
-0.279176 -0.487684 -0.078574 
0.195023 0.073822 -0.151457 
0.076600 0.024316 0.123210 
0.302288 0.142365 0.089894 
-0.176633 -0.411538 0.050506 
0.294155 0.117010 -0.071336 
0.348406 0.233909 -0.028131 
-0.018676 -0.211612 0.058800 
0.272471 0.439047 -0.005193 
0.202732 -0.058967 -0.137286 
0.063221 -0.015875 -0.156692 
-0.075708 -0.218637 0.343654 
-0.077419 -0.178598 0.086403 
0.393665 0.301678 0.081445 
-0.258666 -0.481586 -0.126796 
-0.085548 -0.325852 0.200489 
-0.285210 -0.264907 0.129621 
-0.105200 -0.043547 0.226252 
0.387291 0.355700 -0.010197 
-0.136388 -0.242415 0.287438 
0.049367 -0.154058 -0.265422 
0.372814 0.392929 0.068121 
0.165409 0.180370 -0.077750 
0.045913 -0.282835 0.253526 
-0.150300 -0.232069 0.212745 
-0.081483 -0.039311 -0.457351 
0.200559 -0.035911 -0.161870 
-0.072594 -0.189923 0.107460 
0.210449 -0.057824 -0.022492 
-0.226571 -0.212929 0.168780 
-0.007280 -0.150751 -0.041799 
-0.215944 -0.409994 0.025674 
0.303992 0.113840 0.013994 
0.025741 -0.071395 -0.112464 
0.107898 -0.169706 -0.004322 
-0.030169 0.035888 -0.004309 
0.114849 0.128685 -0.157261 
0.252225 0.211776 -0.068404 
0.227352 0.181350 0.043879 
-0.109385 -0.078664 0.302487 
0.284035 0.468662 -0.026264 
0.304979 0.438415 0.032585 
0.043854 -0.189897 -0.006201 
-0.032915 -0.291590 0.092259 
0.005823 -0.051341 0.263785 
-0.014712 -0.208487 0.339807 
0.250752 -0.001995 -0.126523 
0.033526 -0.125017 -0.205883 
-0.249968 -0.242700 0.142796 
-0.052805 -0.268393 0.094341 
0.009592 -0.312376 0.197250 
-0.102074 -0.328397 0.057381 
-0.171986 -0.211085 0.199883 
0.331147 0.313487 0.085971 
-0.116005 -0.372989 0.057596 
-0.200794 -0.104075 0.190719 
0.291030 0.041229 -0.045697 
-0.250275 -0.453141 0.002559 
0.398229 0.290082 0.017011 
0.039449 0.046935 -0.213385 
0.149152 -0.048449 0.120568 
-0.277792 -0.454790 -0.127814 
0.278497 0.465173 -0.127265 
0.219504 0.079038 -0.139524 
0.190037 -0.047339 0.053479 
-0.118130 -0.217584 0.332250 
0.282282 0.461384 -0.123612 
-0.104130 -0.356162 0.109667 
0.142450 0.135778 0.048459 
0.054554 -0.191824 -0.002942 
0.120370 -0.118166 -0.047119 
0.040382 -0.164817 0.310131 
-0.095369 -0.265889 0.303457 
0.068378 -0.193786 0.002841 
-0.476009 -0.406091 -0.016693 
-0.161975 -0.077061 0.220440 
0.012487 -0.197067 -0.284375 
-0.258219 -0.435383 -0.020299 
-0.037305 -0.147361 0.338411 
0.279227 0.491425 -0.098526 
0.073998 0.130262 -0.143084 
0.122980 0.044263 -0.180819 
0.347674 0.394485 0.077306 
-0.114054 -0.059650 0.053409 
-0.130436 -0.215627 0.156834 
-0.048534 -0.212446 0.074880 
-0.223781 -0.450542 0.005270 
-0.103496 -0.304067 0.101463 
0.127219 0.126290 0.054754 
0.212281 0.178546 -0.074110 
-0.121587 -0.058538 0.267390 
0.361980 0.380687 0.074676 
-0.150664 -0.363666 0.111048 
0.025189 0.036335 -0.104575 
-0.059786 -0.236639 0.126227 
-0.333211 -0.267347 0.117409 
0.252134 0.035816 -0.138128 
-0.185919 -0.414898 0.052169 
0.241167 0.091879 -0.117670 
-0.058447 -0.210476 -0.352580 
0.106463 -0.122936 0.214804 
0.043496 0.102651 -0.042048 
0.003769 0.023406 -0.170883 
0.197782 0.167340 0.013051 
0.150171 0.100945 -0.152660 
0.274488 0.134508 0.100943 
0.070836 -0.003048 -0.164821 
-0.099469 -0.112410 0.030151 
0.241472 0.051774 -0.141124 
0.040028 -0.022718 0.191477 
0.385894 0.429661 0.039607 
0.135754 0.009755 -0.184263 
0.255354 0.070939 0.066683 
0.096959 -0.197119 0.028495 
0.110548 -0.188553 0.205049 
0.194167 0.164950 0.019143 
0.282202 0.107318 0.062568 
0.115319 -0.012947 0.131270 
0.048235 -0.133799 -0.266145 
-0.321482 -0.291303 0.183820 
-0.012005 -0.267326 0.093883 
0.393570 0.273291 0.070485 
0.411223 0.396522 0.002484 
-0.072138 0.003214 -0.396425 
-0.135759 -0.358027 0.042276 
0.089533 0.024621 0.119583 
0.026328 0.017162 -0.195274 
-0.074398 0.015919 0.095335 
0.147793 -0.158530 0.084941 
-0.093762 -0.039688 0.200587 
-0.208242 -0.230874 0.257421 
0.049486 -0.059590 -0.132016 
0.240093 -0.007143 -0.133605 
-0.067636 -0.012795 -0.311000 
0.300529 0.198729 0.104008 
0.301174 0.300881 0.058449 
0.279100 0.060807 -0.101497 
-0.293451 -0.291402 0.178973 
-0.364866 -0.314828 0.140203 
0.208022 -0.058282 -0.048318 
-0.036983 -0.075625 0.304791 
-0.076825 -0.348719 0.117626 
0.248442 0.135017 0.100339 
0.085182 -0.133095 0.260666 
0.318234 0.433201 -0.098253 
-0.133286 -0.319957 0.075905 
0.173928 -0.057389 0.080803 
0.106344 0.051589 0.097076 
0.119318 0.158125 -0.131206 
-0.249520 -0.185839 0.219136 
-0.300516 -0.479576 -0.094087 
-0.268689 -0.452277 -0.134592 
0.339123 0.434588 -0.080599 
-0.189040 -0.217991 0.224540 
0.072788 -0.066606 -0.163752 
-0.000436 -0.286014 0.304873 
0.048329 0.130588 -0.127628 
0.122774 -0.143375 -0.020062 
0.101278 0.140508 0.012236 
0.070188 -0.242298 0.170046 
0.188279 0.125887 -0.123313 
0.164908 0.020551 0.104481 
-0.135401 -0.349918 0.044589 
0.304172 0.318340 0.021839 
-0.013673 0.055757 0.029670 
-0.071148 -0.029221 0.224001 
-0.076291 -0.332127 0.203576 
0.261165 0.500882 -0.083326 
-0.252691 -0.452279 -0.087056 
0.150132 0.101512 0.081883 
0.181007 0.137372 -0.122666 
-0.117435 -0.338110 0.051291 
0.084976 -0.173073 -0.017705 
0.049670 -0.144065 0.297509 
0.146841 -0.140618 0.019066 
-0.430260 -0.371520 0.011065 
-0.032596 -0.008980 -0.298180 
-0.185727 -0.381796 0.026099 
-0.207374 -0.436916 0.013210 
-0.219895 -0.239077 0.225220 
0.295692 0.130570 0.079967 
0.337971 0.313204 -0.050665 
-0.101395 -0.241594 0.152338 
-0.206397 -0.115515 0.241574 
0.078624 -0.156241 -0.037227 
-0.074205 -0.336711 0.142962 
-0.259164 -0.259886 0.185838 
-0.124787 -0.317912 0.064540 
0.250672 0.056324 -0.134253 
-0.034736 -0.157342 0.339808 
-0.041683 -0.005685 -0.042196 
-0.115298 -0.061736 0.057031 
-0.025541 -0.075821 -0.079172 
0.316722 0.244678 -0.049889 
0.044085 -0.125048 0.292331 
-0.444754 -0.352805 0.009594 
-0.069576 -0.169601 0.045081 
-0.059309 0.009595 -0.001623 
0.262392 0.071331 -0.116539 
-0.280547 -0.457966 -0.039692 
0.267753 0.452820 -0.028000 
0.142077 0.113370 0.071796 
0.126574 -0.187698 0.104878 
0.187429 0.130906 -0.121815 
-0.086633 -0.002694 -0.476809 
-0.034536 -0.251615 -0.366518 
0.197469 0.082598 -0.144851 
0.169846 -0.095227 0.000184 
0.015865 0.079290 -0.133164 
-0.383186 -0.335385 0.073696 
-0.026667 -0.029301 -0.077879 
0.161812 0.080803 0.099768 
-0.425666 -0.334553 0.062052 
-0.217448 -0.141073 0.169343 
-0.076826 -0.192166 0.121341 
0.404620 0.351164 0.051270 
-0.038112 -0.201510 -0.291841 
-0.254638 -0.259145 0.151137 
0.354483 0.300231 -0.032195 
0.037808 -0.170119 -0.257353 
-0.048395 0.023700 -0.306493 
0.401323 0.288443 0.053646 
-0.199395 -0.210211 0.284824 
0.068142 0.103640 0.015083 
0.143390 -0.165712 0.093188 
-0.344679 -0.324554 0.112802 
0.298790 0.155035 0.102307 
-0.119660 -0.181387 0.346667 
0.320452 0.167877 -0.052581 
-0.279490 -0.464376 -0.062559 
0.021719 -0.128917 0.307909 
-0.059357 -0.025317 0.237558 
0.095254 0.139021 0.007978 
-0.145713 -0.148744 0.331263 
0.254311 0.484358 -0.062999 
-0.192635 -0.093954 0.202329 
-0.118207 -0.145303 0.342753 
0.024611 0.021242 -0.162972 
0.085426 0.055997 -0.180048 
0.212990 0.201500 -0.031745 
0.404983 0.352694 0.029417 
0.118643 -0.105320 0.181740 
-0.182372 -0.225739 0.289523 
-0.225508 -0.130729 0.196276 
0.348158 0.421627 0.059727 
-0.320316 -0.252253 0.129641 
-0.144264 -0.167819 0.337209 
-0.012689 0.056929 0.036010 
0.386570 0.329970 -0.007222 
0.181810 -0.080828 0.027903 
0.119623 -0.115997 -0.049317 
-0.428548 -0.372501 0.013651 
-0.150638 -0.120269 0.316441 
0.030117 0.117417 -0.107600 
0.041034 -0.233929 0.116252 
-0.287809 -0.243666 0.182280 
0.341628 0.462657 -0.037362 
-0.498157 -0.391533 -0.021898 
0.017223 0.078463 -0.144094 
-0.341901 -0.289274 0.166595 
0.297181 0.118415 -0.067832 
-0.225161 -0.432863 0.026025 
-0.273248 -0.209976 0.192678 
-0.248936 -0.472235 -0.106612 
-0.078186 -0.174241 0.072014 
0.165170 0.127917 0.066042 
-0.342249 -0.283729 0.162336 
-0.284779 -0.215003 0.181586 
-0.008115 -0.218514 -0.284891 
0.004039 0.060000 -0.212954 
0.040496 -0.212752 0.040960 
0.320282 0.366618 0.053115 
-0.018131 -0.109101 0.318750 
-0.301874 -0.300181 0.154146 
-0.105382 -0.023719 0.066267 
0.034087 -0.293284 0.199533 
-0.102640 -0.032646 -0.419082 
-0.042989 -0.225726 -0.393159 
0.071828 -0.221282 0.147484 
-0.188046 -0.185084 0.297788 
0.215898 0.173066 0.025103 
0.111947 -0.176002 0.009637 
-0.371758 -0.326196 0.129707 
0.316076 0.132007 -0.046581 
0.163678 -0.033484 0.099362 
-0.144613 -0.342985 0.048284 
0.024540 -0.148201 -0.277441 
0.210453 0.135210 -0.109643 
0.249335 0.508300 -0.096284 
-0.043631 -0.008134 -0.341867 
0.291618 0.391189 0.022509 
0.128503 -0.185751 0.099954 
0.027742 0.059482 -0.061776 
-0.125277 -0.152190 0.342488 
-0.057599 -0.312197 0.074359 
0.394752 0.323803 0.080327 
0.020745 0.065328 -0.014233 
0.036708 0.123460 -0.124815 
0.227771 -0.048313 -0.063621 
-0.233656 -0.141756 0.195471 
-0.020465 -0.192582 -0.330879 
0.220842 0.501850 -0.131052 
-0.037395 -0.019723 -0.058409 
-0.077888 -0.313291 0.065947 
0.094642 -0.212659 0.081806 
0.000505 0.044846 -0.260820 
0.001568 -0.110454 0.310440 
-0.109344 -0.317793 0.146605 
0.076765 0.150115 -0.060464 
0.233173 0.510217 -0.101423 
0.007070 0.063807 -0.206726 
-0.035626 -0.013550 0.189359 
0.062974 -0.081242 -0.198124 
