0.304122 0.284975 0.356705
-0.480565 0.022910 0.255858
0.226572 -0.314174 -0.216226
-0.413217 -0.098297 0.043972
0.418715 -0.283864 -0.016089
0.420551 0.209536 0.327755
0.384459 0.217920 0.124431
0.412368 -0.133300 0.237092
0.115585 0.229925 0.366749
0.428268 0.225882 0.337229
-0.387559 0.512538 -0.129459
-0.098902 0.180996 -0.427884
-0.516685 -0.079050 0.363447
0.086081 -0.351155 0.223826
0.174180 -0.486202 0.094829
0.419772 -0.099949 0.234666
0.267242 -0.135252 0.451186
-0.505626 0.406591 -0.066333
-0.477953 0.350040 0.123666
-0.385405 -0.157452 -0.018448
-0.029500 0.180304 0.381274
-0.408898 -0.214272 0.257882
0.440515 0.151197 0.421728
0.129037 0.313295 -0.248607
0.398703 0.621972 -0.055405
-0.016654 0.068799 0.488493
0.312638 0.073873 0.556215
-0.405409 -0.207468 0.096968
0.407604 -0.014527 0.659878
-0.349430 -0.127604 0.591483
0.386548 0.164820 -0.019800
0.208339 0.038120 -0.549917
-0.389075 -0.060517 -0.174290
-0.424432 0.210183 -0.138550
-0.432063 -0.057728 0.194965
-0.393806 -0.177335 -0.093497
0.406536 0.042031 -0.394252
0.328821 -0.425659 -0.089341
-0.312756 -0.188367 -0.287024
0.416352 -0.126398 -0.265303
-0.528007 0.391320 -0.043003
0.492642 -0.356760 0.169604
-0.049599 0.604281 -0.020081
-0.337995 0.242634 -0.311685
0.270044 0.441522 -0.148792
-0.400390 0.456264 -0.139613
-0.170887 -0.284911 -0.331086
0.422385 -0.214467 -0.061442
-0.170689 0.466786 -0.126919
0.229622 -0.458238 0.009464
-0.272386 -0.085570 -0.540067
0.421639 0.637667 -0.016447
-0.005600 0.039248 -0.489532
0.486577 0.125566 -0.318387
0.299115 0.409453 -0.201042
0.265675 -0.115514 -0.393629
-0.440023 -0.141597 0.581089
0.401953 -0.045850 0.471813
0.032324 -0.140817 0.454451
0.395172 0.447883 0.224228
0.223539 0.051108 -0.524276
-0.099774 -0.470342 0.139401
0.403249 0.036394 0.397885
0.235010 -0.038529 0.644363
-0.082381 0.180299 -0.418258
-0.400959 0.048203 -0.499950
0.090096 -0.423190 0.168657
0.365588 -0.201692 0.359297
0.481681 0.098275 -0.381446
-0.325827 -0.548074 0.042425
-0.402207 -0.166721 -0.219970
0.421696 0.556950 0.006180
0.404347 0.048495 -0.325501
0.130769 -0.058234 -0.476948
-0.244149 0.568542 -0.095558
0.052602 0.289305 0.297295
0.461556 -0.291143 -0.183404
0.433980 -0.205255 -0.067287
0.433007 -0.166467 -0.309100
-0.068143 -0.118301 -0.464477
0.411000 -0.416650 -0.079692
-0.209180 -0.179883 0.427351
0.334747 0.158098 -0.464029
0.339604 -0.427663 0.104022
0.347446 -0.455571 0.137709
0.263600 0.220513 -0.434166
0.416914 0.344382 0.325912
-0.473585 0.158064 0.113300
0.164684 0.441608 -0.156450
0.453049 -0.188777 0.047696
-0.283230 0.590359 -0.075198
-0.520277 -0.002035 0.335843
-0.083181 0.161480 -0.499903
0.056757 0.425539 -0.163469
0.460323 -0.286213 -0.019343
-0.402411 -0.293551 -0.189336
-0.407362 0.038223 -0.406539
-0.345431 -0.127851 -0.114667
0.096548 0.272354 -0.307676
0.338877 0.490684 -0.091306
0.441137 -0.069311 -0.198477
-0.466933 0.250483 0.023198
-0.522310 -0.034808 0.365555
0.223167 0.117550 0.495633
-0.077821 -0.104205 0.601188
-0.445115 0.368371 -0.128220
-0.037266 0.251233 0.313159
0.389850 0.157435 0.152320
-0.351761 0.566147 -0.094610
0.443264 -0.040211 -0.392314
0.310153 0.565218 0.095666
-0.379921 -0.209176 -0.069079
-0.315508 0.359409 -0.208524
0.457866 -0.358542 -0.104732
0.053359 -0.235018 0.371943
-0.306439 -0.175219 0.533368
-0.357558 -0.068476 -0.436148
-0.276386 0.301045 -0.267563
0.385258 0.281911 0.377431
-0.378603 -0.519037 0.103287
0.443477 -0.439462 0.148970
-0.348832 -0.263540 -0.038748
-0.001649 -0.262059 -0.315241
-0.542618 0.184124 0.264766
0.302403 0.444636 -0.141262
-0.458776 0.032167 0.216646
0.318111 -0.471582 0.012716
-0.373913 0.023598 -0.502941
-0.400343 0.579936 -0.074484
0.417403 -0.240463 -0.141733
0.119983 -0.212807 -0.334592
0.043300 0.174367 -0.485406
0.050491 0.116840 -0.487147
0.010002 -0.398357 0.169260
-0.411165 0.121829 -0.511673
0.309160 -0.086690 0.582548
-0.344259 -0.565811 0.066015
0.164719 0.543805 0.083705
-0.251690 -0.479586 -0.018899
-0.075990 0.539782 -0.090673
0.429975 -0.005678 0.210552
-0.397363 -0.309652 -0.214192
-0.131390 0.370584 -0.214941
-0.020060 -0.334301 0.222365
-0.125169 0.494992 -0.112151
0.449773 0.131715 -0.286824
0.447378 -0.034817 -0.422575
0.426830 0.371057 0.251358
-0.037804 0.356999 -0.239586
-0.526018 -0.067177 0.394094
0.208033 0.442198 0.188364
0.233335 0.341640 -0.252731
0.171540 -0.079851 0.619538
0.222564 0.202766 0.415720
-0.496147 0.423173 -0.114088
-0.427097 0.264851 -0.145460
0.388244 0.336784 0.123953
-0.262698 -0.463991 -0.183614
-0.494413 0.289661 0.176572
0.383121 -0.086920 0.437101
-0.494084 0.401246 -0.100330
0.392543 0.153778 0.130106
0.386957 0.004787 0.412437
0.425768 -0.091474 -0.171550
0.216368 -0.051920 -0.464024
-0.528304 0.107566 0.205317
-0.350050 -0.409847 0.102805
-0.059730 -0.126754 -0.454711
-0.018336 0.281803 -0.274886
-0.370942 -0.329335 0.008009
0.412081 0.145127 0.511393
-0.287477 -0.234107 -0.404311
0.409630 -0.046342 -0.005281
0.269396 0.305080 -0.277662
0.410366 -0.047543 -0.242576
-0.135942 0.170632 -0.377995
0.076782 -0.084433 0.616792
-0.544857 0.205387 0.204300
0.260865 -0.006311 -0.496936
-0.386897 -0.299015 0.217667
0.419574 0.110162 -0.366842
-0.407750 0.396452 -0.164264
-0.109922 0.099178 -0.475319
0.245791 0.443733 -0.156464
-0.164849 0.346705 0.195698
-0.123820 -0.200000 0.389456
-0.411134 -0.017745 -0.390335
0.431178 -0.243722 0.145550
0.423606 0.596472 0.003505
-0.194041 0.602389 -0.064657
-0.246080 0.221444 -0.356631
0.199328 -0.205942 0.390013
0.326545 -0.343351 0.192337
0.252166 0.412155 0.226204
0.210974 -0.475610 0.106427
-0.257145 0.003142 0.497033
-0.324530 -0.100504 -0.506314
-0.509215 -0.179077 0.484471
0.185015 0.042993 -0.503444
-0.320734 0.476057 0.040290
0.000819 0.349314 0.229718
-0.484898 -0.164028 0.450230
0.422921 0.208990 -0.154965
0.443973 0.015947 0.614020
-0.024972 -0.479429 0.067475
-0.463417 0.070677 0.388408
-0.372570 -0.222345 -0.087037
0.404969 -0.087256 0.048720
-0.288587 -0.518240 0.110846
0.406666 0.026491 -0.367261
0.387461 -0.042647 -0.435057
-0.458808 0.271046 0.201835
0.403420 0.038598 0.090076
-0.444090 -0.159075 0.561582
0.372959 0.321948 0.337241
0.155936 0.428915 0.189333
-0.135092 0.596057 -0.073611
0.396705 0.053696 -0.027290
-0.119011 0.001870 0.528625
-0.021647 -0.019937 -0.546345
-0.198734 0.264958 -0.300011
-0.391050 -0.126166 0.079959
-0.556963 0.459862 -0.032855
-0.103639 -0.135405 0.566897
-0.386482 -0.222433 0.398029
0.116807 0.316265 -0.245219
0.403075 0.313435 -0.084868
0.107876 0.558387 -0.080804
0.237675 0.221184 -0.420415
0.203645 0.092332 -0.446088
-0.303922 -0.272658 -0.282713
-0.419918 0.109752 -0.179970
0.408288 0.193178 -0.211920
0.014499 0.321160 -0.249086
-0.374731 -0.276795 0.096480
0.048312 0.097277 0.476130
-0.418406 -0.075632 0.535290
0.225171 -0.408077 0.181222
-0.527069 0.083985 0.255855
-0.425781 0.101725 -0.006362
0.405132 0.096278 0.171406
-0.343942 -0.368441 -0.109328
-0.236606 0.464068 0.070029
0.459460 -0.394193 0.098449
-0.389234 -0.045104 0.001080
0.327652 0.371870 0.280532
-0.438648 -0.037859 0.026414
-0.314520 -0.377057 0.180756
-0.202831 -0.172977 0.521126
-0.262500 0.105584 0.399947
-0.013207 0.041693 0.514629
0.417064 -0.426406 -0.069223
0.363280 0.026584 0.611634
-0.387306 0.507972 -0.004241
-0.404540 -0.234069 -0.189925
0.432065 0.396764 0.147884
0.439343 -0.000182 -0.084115
-0.372696 -0.081007 0.550382
0.138418 -0.455662 -0.103146
-0.500733 0.053193 0.256105
0.336236 -0.247876 -0.254170
-0.347032 -0.306364 -0.169920
0.175981 0.656611 -0.025949
0.145876 -0.142543 0.436192
-0.461461 -0.188113 0.512017
-0.089347 0.202268 -0.361207
-0.410684 0.317009 -0.259672
-0.368337 -0.471998 0.114748
0.170577 -0.401850 0.175959
0.056868 -0.123999 0.511606
-0.253377 -0.202184 0.403878
0.402759 -0.111403 0.109607
0.263723 -0.018113 -0.485257
-0.323308 -0.107911 -0.329823
-0.302675 0.320635 -0.260082
0.410258 -0.098722 0.287016
-0.357320 -0.334962 -0.158752
0.181863 0.044486 0.554946
0.097335 0.278518 -0.279428
-0.254061 -0.329107 0.245093
-0.225688 -0.229933 -0.394622
-0.306294 0.525261 -0.117799
0.435129 0.220767 0.307544
-0.103599 -0.358059 -0.247790
-0.013773 -0.169805 -0.404289
0.096181 0.470280 -0.120933
0.425476 0.152890 0.088654
-0.369939 0.154109 0.330871
0.228628 -0.107867 0.480151
-0.168296 0.364701 -0.210085
-0.424159 -0.084987 0.164393
0.246404 0.185120 0.437487
-0.153969 0.256231 0.282796
0.411792 0.159591 0.497788
0.183083 0.283304 -0.300005
0.436648 -0.103159 0.172039
-0.069086 -0.377777 -0.221733
-0.140564 0.113370 0.419494
-0.487236 0.141375 0.167720
0.413225 0.124430 0.405025
-0.311678 0.109533 -0.530230
-0.011490 -0.444565 0.037006
-0.030264 0.208595 -0.355653
0.413444 -0.294254 0.240124
0.416637 -0.222650 0.284642
-0.203791 -0.430406 -0.202097
-0.079425 -0.393408 -0.209372
-0.308081 -0.287756 -0.174289
0.393375 0.089746 0.207367
0.434338 -0.033478 0.550024
0.055827 0.387094 0.206454
0.389090 0.284611 -0.142580
0.221954 -0.484465 0.120226
-0.242975 0.258422 0.261155
-0.333014 0.580625 -0.081470
0.409855 0.293955 0.245681
-0.155978 -0.298905 -0.314703
-0.024887 -0.079872 0.625347
0.185074 0.400346 0.222493
-0.094522 -0.054416 -0.530098
-0.164288 0.119114 -0.539585
-0.268783 0.484254 -0.123970
0.168590 -0.318724 0.197792
0.131393 -0.487390 -0.003352
-0.304789 -0.406700 0.145396
0.294709 0.499679 -0.092431
0.492489 -0.162097 -0.132383
0.436019 0.056359 0.503185
0.224924 0.339732 -0.271123
-0.321107 -0.103903 -0.497142
0.265020 0.449129 0.194417
-0.416162 0.090780 -0.517423
-0.158448 -0.279220 -0.333677
-0.135634 0.354249 0.195065
-0.424913 -0.023833 0.147861
-0.072169 0.250258 -0.346482
-0.086516 -0.042936 0.577724
0.451430 -0.167999 0.045018
0.348391 -0.178657 0.390329
0.164007 -0.503720 -0.052518
-0.403885 0.012142 -0.132339
0.074092 -0.275658 -0.285841
0.441425 -0.007294 0.216529
-0.204543 -0.493669 -0.008643
0.226114 0.108943 -0.435067
0.268641 -0.470015 -0.061052
-0.450178 -0.040079 0.495013
-0.070202 0.068156 0.477310
-0.037564 0.378932 0.193541
0.125374 0.562605 -0.083461
0.431321 0.082218 -0.035478
0.477137 0.059440 -0.236796
-0.249565 -0.154662 0.510785
0.394610 0.349713 -0.090448
-0.343320 -0.273928 -0.022318
0.296496 -0.214014 0.375315
0.038495 0.196384 -0.440523
0.244977 -0.301535 -0.224009
0.459062 -0.068903 -0.005844
0.007982 0.150981 0.416976
0.245416 -0.340776 -0.187171
-0.013719 0.191870 -0.416124
0.422719 -0.323553 -0.048232
-0.015695 0.435242 -0.140255
0.092922 0.253284 -0.348648
0.184656 -0.071806 -0.452382
-0.229981 -0.293886 -0.335686
-0.020144 0.072896 -0.460659
-0.495803 0.126068 0.329422
-0.105365 0.359743 0.196584
-0.171018 0.353760 -0.261148
0.296529 0.204448 0.430425
-0.029940 -0.500744 0.063902
0.247471 0.411367 -0.175862
-0.074043 0.026542 0.515424
0.336961 0.408436 -0.189507
-0.214658 0.160615 -0.429958
0.011720 0.203061 -0.397907
0.189477 0.396965 -0.224554
-0.206243 0.443744 -0.134631
0.189901 0.630663 -0.053940
-0.173737 0.134378 -0.512010
0.373739 0.355111 -0.033270
0.422527 -0.246628 -0.153669
0.420187 -0.353874 -0.043192
0.451815 -0.296804 0.141837
-0.011049 -0.325350 0.200554
-0.173751 -0.162902 0.442656
-0.404959 -0.247306 0.338543
-0.236620 -0.380568 0.177083
0.505088 -0.157640 -0.067219
-0.356426 0.193274 -0.366437
0.412303 0.011665 -0.480443
0.193215 0.196043 0.415555
-0.173968 0.193965 0.336689
-0.117669 -0.280644 0.306013
-0.370361 0.071369 -0.199681
0.016823 -0.473170 0.138881
0.043598 -0.484499 0.119330
0.389055 0.363259 -0.181197
0.174969 0.205498 -0.464098
-0.119829 0.394774 0.160604
0.200433 -0.246872 0.282741
0.199627 0.526720 -0.077529
-0.429776 -0.200486 0.491038
0.309408 -0.497083 -0.026737
0.419894 0.573053 -0.017442
-0.081986 -0.024105 -0.555720
0.224810 -0.422569 0.177345
0.355399 -0.418433 0.108490
0.275537 0.416017 0.227732
0.445372 -0.082537 -0.201423
-0.312954 -0.211420 -0.271938
-0.423447 0.032856 0.057759
0.359907 -0.237669 0.318759
0.418896 0.154869 0.503772
0.397314 0.270610 -0.143668
-0.259471 -0.356082 0.195563
0.384274 -0.473384 -0.001903
0.443509 0.033884 -0.328622
-0.385046 -0.543512 0.045382
-0.060990 0.159627 0.393701
-0.152373 0.284843 -0.267241
0.405241 0.175360 -0.253741
-0.521562 0.289329 0.038649
-0.302815 0.015827 -0.446374
0.298459 -0.222237 0.329974
-0.296368 -0.265968 0.318099
-0.181288 -0.037722 0.551985
-0.399079 -0.308229 -0.201132
-0.187165 0.448442 -0.133362
-0.367497 -0.396367 0.031533
-0.399868 -0.228975 -0.190308
-0.178663 -0.263500 0.347864
0.415311 0.535841 0.050785
-0.042826 -0.289102 -0.298982
-0.106210 -0.462098 -0.150950
-0.370702 0.517430 -0.009441
0.157324 -0.147857 0.446702
-0.083140 0.053666 0.488028
-0.548360 0.445165 -0.068883
-0.362186 -0.555543 0.079670
0.422755 -0.113960 -0.295477
0.301995 -0.200583 0.381700
-0.153424 -0.074215 -0.524521
0.422859 0.418935 0.218409
-0.045350 0.056361 0.493822
0.166581 -0.498091 -0.057222
-0.262674 0.129660 0.377369
0.415967 0.253758 -0.107771
-0.352108 -0.204943 -0.252258
-0.488104 0.009763 0.276866
-0.433765 0.028451 0.019143
0.129608 -0.245125 0.314409
-0.358508 0.503857 0.005949
-0.080146 -0.448780 0.148717
-0.042308 0.174132 -0.483826
0.431916 -0.235600 0.117000
-0.303983 -0.322601 -0.270230
0.418492 0.458587 0.095784
-0.264898 0.014472 0.484719
0.440878 0.012346 -0.100204
0.193207 -0.212935 0.388135
0.468733 -0.081934 -0.241655
-0.023756 0.243953 -0.309565
0.086707 0.289054 -0.315937
-0.451581 0.044085 0.138814
0.107742 0.391484 -0.234044
0.201942 0.383905 -0.228894
0.297358 -0.455466 0.095358
0.321723 -0.468541 0.143933
-0.526181 0.342659 0.119962
-0.179442 -0.019801 -0.581195
0.235244 0.329618 -0.279100
-0.429025 -0.195945 0.415487
0.126285 -0.481789 0.127529
0.044459 -0.109071 0.574075
0.099174 0.456507 0.151009
-0.444348 0.325420 0.154112
0.402632 -0.003069 0.443286
0.399548 0.333865 0.203117
-0.168677 -0.505469 -0.124088
0.372979 0.680386 0.001672
-0.212319 0.277310 -0.315745
-0.351653 -0.209555 0.025538
0.364144 0.026772 -0.505186
-0.387499 -0.394534 -0.076751
-0.221273 -0.391436 0.168707
-0.309411 0.017249 0.472323
-0.382455 0.093222 -0.560044
0.404137 -0.030052 -0.020911
0.052911 -0.269430 0.272890
-0.259309 -0.207838 0.393201
-0.178694 -0.305854 0.272398
0.475456 0.197010 -0.384169
-0.266597 -0.371166 0.185306
-0.350974 -0.326409 0.056497
0.035637 0.114810 -0.483580
0.386110 -0.010391 0.412566
0.111622 0.270141 -0.287493
-0.383581 -0.278420 0.200453
0.391683 0.517005 -0.013302
0.236206 0.129278 -0.425427
0.183447 -0.204507 0.385883
-0.371545 0.309960 0.184609
-0.077823 -0.461089 0.061112
0.077903 -0.161453 -0.391935
0.015271 -0.096428 0.604835
0.357828 0.309397 -0.273447
0.346323 0.463333 -0.115853
-0.071738 0.528470 0.046021
0.322720 0.218837 -0.363890
-0.077839 0.424204 -0.139390
-0.396403 -0.215697 -0.234076
-0.060056 -0.027491 -0.547724
0.223663 -0.084366 0.613369
-0.400164 -0.014495 -0.474012
0.482324 -0.029445 -0.158945
0.049110 -0.310202 -0.258995
-0.540331 0.073151 0.321627
-0.339168 0.048875 -0.484811
-0.313553 -0.135478 -0.455930
-0.537170 0.170387 0.196864
-0.268064 0.305498 0.211561
-0.170568 0.048543 0.473582
-0.093709 0.246909 -0.324441
0.216461 0.359618 0.267531
-0.488704 0.151613 0.161394
-0.281022 -0.340507 0.225295
-0.362870 -0.151207 0.032333
-0.142123 0.402057 -0.184849
0.405756 0.083492 0.168025
-0.538722 0.097378 0.281502
0.349073 0.597383 -0.063470
0.366967 0.478030 -0.030805
0.387809 -0.046559 0.469160
0.374143 0.051370 -0.514888
-0.204208 0.292416 -0.295999
0.060773 0.229431 -0.379882
-0.405010 0.238534 -0.261125
-0.433996 0.312767 -0.247574
-0.511208 0.147353 0.306105
-0.218053 0.461038 -0.129028
-0.184289 0.141166 -0.515656
0.398217 0.402701 0.101852
-0.209077 -0.276571 0.343437
-0.299924 -0.213865 -0.366278
-0.124432 0.307919 0.240906
0.153897 0.217444 -0.374882
-0.543955 -0.049286 0.483000
-0.311962 -0.023895 0.510281
-0.408562 0.075564 -0.218246
-0.355190 -0.036291 -0.412623
-0.394943 0.287830 -0.272578
-0.442227 0.292335 0.185553
0.072809 0.097192 0.481601
0.433083 -0.137457 -0.280092
0.393114 -0.153443 -0.330073
-0.123580 -0.107617 0.599546
0.402760 -0.002584 -0.044954
0.461648 -0.309578 0.140363
0.428650 0.337993 0.287024
-0.182118 -0.166070 -0.444830
-0.364436 -0.368056 0.019211
0.011221 0.336368 0.244127
0.454504 -0.030976 -0.261955
-0.215915 0.402729 -0.166541
-0.227456 -0.082333 0.583590
0.069060 -0.329203 0.252112
-0.304996 -0.149006 0.564749
-0.243399 0.253633 -0.336300
0.432451 0.242033 0.295713
-0.297634 -0.393413 0.156128
-0.387734 -0.387316 -0.109512
0.124586 0.426895 0.184324
-0.285482 -0.538127 -0.108280
0.269718 0.674193 -0.015688
-0.253431 0.450450 -0.140588
0.232559 -0.059001 -0.453831
-0.541855 0.246660 0.138520
-0.519658 0.067955 0.271673
-0.344988 -0.396872 -0.075451
0.427482 0.119950 0.110773
0.026628 -0.395201 -0.184356
-0.138520 0.538423 -0.103265
0.442625 -0.202987 -0.062601
0.039027 0.415374 -0.169113
0.416591 0.001435 -0.070651
-0.163133 0.345142 -0.254021
0.217856 0.390251 -0.222171
-0.219506 -0.401325 -0.232784
-0.442810 -0.004368 0.030977
-0.171685 -0.162377 -0.445992
-0.131406 0.002123 -0.562999
0.085266 0.493885 0.112954
-0.369239 -0.390608 -0.111135
-0.504355 0.098997 0.197879
0.289135 -0.418331 0.179082
-0.234500 -0.105216 -0.513335
0.139557 -0.243760 0.316066
-0.426300 -0.143281 0.291942
-0.548182 0.392953 0.014233
0.443333 -0.071963 -0.205436
-0.388137 -0.255924 0.157670
0.098990 -0.292279 -0.264800
0.167737 0.598605 -0.064812
-0.184889 0.515587 -0.098246
-0.392835 0.106696 -0.545643
0.391130 0.307532 -0.164059
-0.488546 -0.106280 0.548546
0.369749 0.485461 0.183452
0.442279 -0.058614 -0.028325
-0.436661 0.270793 -0.116304
0.064565 -0.470982 0.072802
-0.305906 0.005522 0.484073
0.428241 -0.233313 0.185979
-0.191971 0.238957 0.290604
0.074390 0.223577 0.363626
0.484355 0.080085 -0.340279
0.404704 0.057032 -0.324455
0.060436 0.292619 -0.309013
-0.296167 -0.313990 -0.331426
-0.259691 0.249470 0.265858
0.228528 0.355904 -0.232858
0.427664 0.020435 0.106203
-0.397299 0.343203 -0.218172
0.278638 0.451771 0.194941
-0.347651 -0.479412 0.114737
-0.152587 -0.154546 -0.449122
-0.306807 -0.284823 -0.193336
0.117196 0.565654 0.052791
0.433608 -0.157987 0.056736
-0.299899 -0.320730 -0.193175
0.386264 0.337990 -0.221542
-0.138294 0.415696 0.136953
0.407880 0.166022 0.332767
0.042806 -0.243995 0.333969
-0.430692 -0.196664 0.482931
-0.153623 -0.162417 -0.441980
0.091852 0.157741 -0.509032
-0.533838 0.185258 0.159738
0.272768 0.545815 -0.069904
-0.300515 0.086137 0.409787
-0.405528 -0.189045 0.464868
0.165061 -0.184310 0.408899
0.078928 0.130693 0.451584
0.358049 0.611166 0.063191
0.101915 0.542333 -0.079890
0.452745 -0.194099 -0.111393
0.112936 -0.518176 -0.018742
-0.392033 -0.201230 -0.081755
-0.041748 -0.479078 -0.120867
0.427812 -0.003866 0.527036
-0.384010 0.404702 -0.156935
0.433896 -0.047404 -0.018421
0.480324 -0.206464 -0.092980
-0.304571 -0.411572 -0.188913
-0.091415 -0.109601 0.595922
0.347922 0.340696 0.314178
-0.070831 -0.135548 0.537461
-0.434359 0.077600 0.083846
-0.208844 -0.304894 0.302788
-0.003258 -0.429861 -0.158480
-0.427128 0.287018 -0.187524
-0.276219 -0.246524 0.344771
-0.393960 -0.201924 0.058711
0.076657 0.441324 -0.143387
0.218928 -0.107125 0.491079
0.390740 0.337738 -0.019283
0.277603 -0.188312 0.382219
0.111650 0.422862 -0.170797
-0.312512 -0.154357 0.559225
0.167449 -0.421331 -0.128903
-0.268426 -0.473906 -0.038706
0.230846 -0.006444 0.613408
0.424735 0.187159 -0.161437
-0.298204 0.442647 0.076527
0.266349 0.175505 -0.496704
0.315947 -0.083077 0.579676
-0.375376 -0.467540 0.091615
0.166681 0.548966 0.079306
-0.178868 -0.296919 0.250974
0.421465 0.369916 0.291524
-0.052098 -0.410585 0.158995
0.006890 -0.446022 -0.141115
-0.318019 -0.228619 0.371053
0.427500 -0.057570 -0.038717
-0.505893 0.305797 0.158938
0.132541 -0.106675 0.589553
0.084182 -0.433913 -0.135445
-0.394278 0.503293 -0.001395
0.348918 -0.396896 0.096667
-0.491897 -0.128954 0.569037
-0.248883 -0.034648 -0.574130
-0.387033 -0.086988 -0.243132
0.221938 -0.513978 -0.008443
-0.283679 0.074405 0.424476
-0.512765 -0.012366 0.455293
-0.560451 0.500896 -0.069415
-0.445387 -0.068844 0.064130
-0.149718 0.085356 -0.470231
-0.430603 0.293209 -0.169714
-0.492109 0.362279 0.109092
0.042914 0.344036 0.243923
-0.408874 -0.239169 0.289175
0.107327 0.243034 0.352659
0.264401 0.336289 0.299923
-0.545791 0.235025 0.189887
0.102306 -0.397115 0.168687
-0.295799 -0.306137 -0.338698
-0.427200 0.173479 -0.076740
-0.298662 -0.247042 -0.334039
0.117733 0.305862 -0.254952
-0.093399 0.363304 -0.254334
0.451429 0.211752 -0.471522
-0.001696 -0.353720 -0.229428
0.419377 0.250916 -0.023684
0.391880 0.477115 0.196137
0.110760 -0.393801 0.172237
0.246096 0.298053 0.331691
-0.432390 0.306007 -0.158406
0.065230 -0.242457 -0.318878
0.440639 0.142868 0.446532
0.112864 0.486101 -0.101007
-0.323372 -0.480446 0.118555
0.488584 -0.207048 0.017008
-0.506712 -0.182878 0.542272
0.311966 0.268873 -0.310514
-0.356608 0.487621 0.021568
0.397559 0.185757 0.092359
-0.344438 0.208009 -0.347564
-0.350226 -0.206862 0.012375
-0.488381 0.105066 0.350718
-0.020156 -0.086300 0.618024
-0.327007 0.081911 0.407912
-0.331255 -0.328028 -0.125901
0.166376 0.059089 0.537866
-0.381283 0.030955 -0.248023
-0.346919 -0.253167 -0.203583
-0.319786 0.445807 0.068818
-0.039572 0.072945 -0.460430
-0.115043 0.134281 -0.515722
-0.555744 0.484931 -0.078105
-0.336074 0.240188 0.257737
0.344607 0.585100 0.084635
0.387813 -0.155999 0.399076
0.393744 0.413218 0.256368
-0.488965 -0.052648 0.352705
-0.507465 -0.183515 0.479183
0.406626 0.008282 -0.314960
0.390227 0.061476 0.052853
-0.427570 -0.114243 0.256975
0.059019 0.303453 -0.297809
-0.412508 0.141778 0.333047
0.427745 0.478564 0.083060
-0.227771 -0.244614 -0.381334
0.427443 0.075360 0.580091
0.385882 -0.112605 0.408341
0.057202 0.090852 -0.448864
-0.086546 0.385772 -0.180210
-0.156847 -0.496464 0.122419
0.409937 -0.055181 0.189754
-0.102099 0.287682 -0.287248
-0.529302 0.548897 -0.114527
-0.150627 0.374613 0.172700
-0.542585 0.074688 0.337954
-0.458924 0.232720 -0.050739
-0.395947 0.100326 -0.256985
-0.410202 0.003143 -0.010502
0.411790 0.624823 -0.034715
0.495026 -0.141286 -0.101447
0.424922 -0.018940 -0.392541
0.315550 -0.436159 0.101510
0.383557 -0.047460 -0.431410
-0.533535 0.392637 0.071554
0.077935 -0.057280 -0.489467
-0.296078 0.241477 0.265333
-0.209063 -0.102078 -0.510676
-0.061351 0.178433 -0.464333
0.388297 0.051238 0.082453
-0.464075 0.014879 0.440502
0.221766 -0.343023 0.218409
-0.053903 0.108205 -0.473612
0.167987 0.266734 0.343821
0.017551 0.016521 -0.560101
0.433990 0.046376 -0.058284
0.090889 0.350517 0.248415
-0.228328 0.487882 -0.121822
0.239864 -0.245272 -0.277815
-0.067815 0.445901 -0.127155
-0.442584 -0.010280 0.021326
0.036436 -0.125922 0.514031
0.465933 -0.089149 -0.228217
-0.515235 0.261646 0.041396
-0.119637 -0.082259 0.607250
0.133022 0.058001 -0.476263
0.439383 -0.017059 -0.091844
0.379212 0.551270 -0.057259
0.285348 -0.110992 -0.393534
-0.417544 -0.015263 0.478962
0.069767 0.609765 -0.069218
-0.405857 0.017965 -0.406882
-0.427570 -0.113420 0.568651
-0.316707 -0.036949 0.521458
0.265451 0.537423 0.111850
-0.301659 0.385634 -0.192375
0.426445 -0.168186 -0.229154
0.093319 -0.262620 0.333588
-0.001605 -0.547796 -0.047691
-0.360996 0.040582 -0.224211
-0.194418 -0.428642 -0.201687
-0.424393 -0.213388 0.369818
-0.098794 0.064185 0.474735
-0.083086 -0.424070 0.145977
-0.324422 0.469373 0.045735
-0.415477 0.532860 -0.033742
-0.079510 0.604436 -0.067168
0.112101 0.483132 0.128928
-0.540846 0.258105 0.129643
-0.400518 0.109507 -0.144334
0.337023 0.209833 0.434295
-0.411931 -0.140852 -0.286319
-0.496555 0.146613 0.170023
0.506870 -0.268241 0.050484
0.436655 -0.017702 0.232817
0.087490 0.478221 -0.111340
-0.419281 0.099107 -0.504964
-0.266993 0.103738 -0.546678
0.224086 0.372060 -0.234447
0.398508 0.077531 0.282189
0.286867 0.414564 -0.168261
-0.260273 -0.107868 -0.516524
-0.072610 0.045428 0.498058
0.102271 0.375981 -0.223379
-0.408652 0.169297 0.308132
0.353969 0.674091 -0.023670
-0.283821 0.334849 -0.258035
0.485696 -0.276719 -0.026248
-0.067991 -0.356398 0.183805
-0.562684 0.538749 -0.109604
0.096667 -0.412953 0.170153
0.442953 -0.062314 -0.404431
-0.495509 0.283912 0.181712
0.233313 -0.473553 0.125737
-0.424832 0.303740 -0.163826
0.423100 0.433865 0.193667
0.462135 0.125469 -0.410062
0.416065 0.610151 -0.013816
0.164027 0.192814 0.412155
-0.268479 0.028648 0.470659
0.266134 0.152078 -0.476069
-0.122693 0.278668 -0.276438
0.112894 -0.124937 0.465696
0.158337 0.611748 0.018692
-0.309251 0.026448 0.463745
0.332268 0.244497 0.400797
0.397364 -0.046846 0.117419
0.232790 -0.355058 0.202209
-0.235627 -0.478706 0.012387
-0.376289 -0.023508 -0.458239
0.396117 0.051658 0.280669
-0.112714 0.162632 0.379504
0.144142 -0.448047 0.155775
-0.239652 0.537033 0.001049
0.424914 0.098431 0.013382
0.412138 -0.078743 -0.271370
0.434021 0.336392 0.233086
0.498966 -0.321407 0.054937
0.265349 -0.343168 -0.180545
0.368880 0.358672 0.301962
-0.484320 0.193185 0.083589
0.445997 0.007197 0.615125
-0.004283 -0.251120 0.340935
-0.091847 0.190630 -0.401370
-0.459699 0.152700 0.104995
-0.071521 0.340471 0.222075
0.490064 -0.239819 0.043780
-0.239751 -0.167622 0.452992
-0.520045 -0.190565 0.530935
-0.293394 -0.291221 -0.352135
-0.023591 -0.337791 0.239862
0.165421 -0.110107 0.475374
-0.367694 0.132260 -0.459636
0.430591 -0.047414 0.279859
-0.419887 0.526572 -0.125003
-0.555056 0.378486 0.068668
-0.460696 0.456192 -0.148314
-0.257415 0.253615 -0.311823
-0.445627 -0.119865 0.570711
0.120822 0.609071 0.012941
0.402836 -0.099320 0.370461
0.385399 0.392253 0.097862
-0.138441 -0.396352 0.143113
0.426872 -0.005416 0.241835
0.414125 0.560456 0.113597
0.440135 0.130612 -0.182049
-0.253876 0.126857 0.381929
-0.051803 0.005920 -0.565957
-0.387427 0.114171 -0.537852
0.073289 0.082472 0.495488
0.411373 -0.191471 0.252340
0.394445 0.459146 0.057879
-0.113033 0.530885 -0.110707
-0.383173 0.398640 0.099026
-0.300098 -0.267648 -0.305599
0.259583 -0.171144 -0.342883
-0.121275 0.448739 -0.123717
0.232186 -0.487760 -0.052459
-0.183684 -0.457979 -0.171856
0.401610 0.076433 0.120827
-0.383855 0.360741 -0.194799
-0.054029 0.526202 0.052042
-0.199102 0.587414 -0.080679
0.069876 0.045971 0.528909
0.490651 -0.080423 -0.124779
-0.437333 0.029150 0.013390
-0.189408 -0.496872 -0.014212
-0.375247 -0.370588 -0.132489
0.233493 -0.164155 0.419983
0.433363 -0.244588 0.114575
0.507084 -0.254315 -0.039827
-0.340958 -0.236388 -0.018481
-0.370736 0.150155 -0.353881
-0.042637 0.345219 -0.233729
-0.216043 0.102877 -0.555487
-0.124437 -0.451998 -0.164418
0.428906 -0.456371 -0.038560
-0.067419 -0.422011 0.147301
-0.379337 -0.145871 0.573839
0.341019 0.140583 -0.411387
-0.235695 -0.063770 -0.552405
0.291876 0.119543 0.508890
-0.366334 0.048174 -0.542568
-0.390996 -0.242551 0.041900
0.330360 -0.448927 0.162204
0.179312 0.172871 0.434190
0.451147 -0.235890 -0.051111
-0.430354 0.058329 -0.073291
0.371514 0.090100 -0.413786
-0.088826 -0.486648 0.059454
-0.099079 -0.402355 0.152366
0.441619 0.083655 0.522834
0.291263 -0.408350 0.183009
-0.256360 0.550510 -0.109887
-0.431390 0.257301 -0.231615
0.460115 0.212024 -0.364419
-0.322507 0.022984 0.464071
-0.260664 0.356798 -0.237247
0.481499 0.093703 -0.336254
-0.320809 0.067797 -0.516652
-0.298671 0.372294 0.142289
-0.057029 -0.073849 0.613156
0.251980 0.306304 0.325261
0.275713 0.429971 0.214706
-0.287597 -0.478186 0.025700
0.362315 -0.460841 0.013215
-0.535483 0.089541 0.354886
-0.339515 -0.226308 -0.071393
0.018784 0.331935 -0.255132
-0.318777 0.390709 -0.190160
0.122500 0.367662 0.239320
-0.433207 0.002871 0.042910
-0.406511 0.094453 -0.178918
0.232062 0.590276 -0.084818
0.256814 0.215386 -0.440888
0.457628 -0.290575 -0.013581
-0.329860 -0.560484 0.052493
0.474601 -0.122100 -0.045487
0.108857 -0.059152 0.635905
0.084135 -0.425263 -0.143554
0.198728 0.455828 0.173555
0.490038 -0.217877 0.019194
0.395732 -0.019077 0.119825
0.416430 -0.036651 0.080695
-0.192132 -0.175067 -0.438610
0.488447 -0.016203 -0.237869
0.366357 0.563939 0.109234
-0.406226 -0.256927 -0.183751
0.381355 -0.047035 0.418160
0.386864 0.077976 0.568711
0.376607 0.276508 -0.306247
-0.347355 -0.309765 -0.199303
-0.488308 0.489760 -0.136546
0.394409 0.330466 -0.188765
0.021528 -0.205886 -0.362737
-0.226891 -0.243949 0.359286
-0.346510 -0.039808 0.517575
-0.359711 -0.063680 -0.100961
0.224557 0.373908 -0.225026
0.010823 -0.514762 0.091005
-0.047681 -0.342905 -0.249673
-0.402675 0.270912 -0.269307
0.485584 -0.031911 -0.168424
-0.354898 -0.342375 -0.150917
-0.233946 0.361885 0.166279
0.481032 0.210259 -0.418613
0.213100 0.019898 0.584841
-0.346329 -0.544229 0.090564
0.037643 0.360012 -0.248836
0.430831 0.014248 0.191459
0.080442 -0.150772 -0.401378
0.446185 0.000505 0.624293
0.413907 -0.006737 0.040182
-0.496235 0.022855 0.425956
0.429376 0.177388 0.484984
-0.046280 0.272320 -0.317438
0.382285 0.303236 -0.101432
0.022405 -0.100573 -0.461151
0.439403 0.096305 0.507458
-0.490159 -0.125277 0.422440
0.150839 -0.446771 0.156749
0.416172 -0.150708 0.369133
-0.072003 -0.461385 -0.144091
0.410883 -0.117572 -0.260613
0.042025 -0.102854 0.597874
0.062622 -0.383536 0.173594
0.320179 0.555860 0.106634
-0.230449 -0.524740 0.050143
-0.025062 -0.501040 0.123533
0.064497 0.604500 -0.074197
0.104298 -0.104620 0.587863
0.030098 -0.357427 -0.218961
0.084396 -0.041972 0.614438
-0.042250 -0.483727 -0.011945
-0.187965 0.153581 -0.488463
0.494850 -0.138239 -0.067830
-0.539981 0.547372 -0.074730
-0.399787 0.225420 -0.259170
-0.361730 -0.323072 0.075653
-0.489506 0.241701 0.065755
0.310906 -0.203248 0.364326
0.389547 0.255362 0.171150
-0.455241 0.202976 0.266347
-0.418052 0.329131 0.156425
0.024142 0.199305 -0.355040
-0.425616 0.150959 -0.195273
0.053365 0.478467 -0.107668
0.414072 0.183011 -0.302132
-0.461558 -0.044398 0.304777
0.394704 0.322654 -0.178945
-0.494417 0.382312 -0.065284
0.134829 -0.455398 0.084201
0.178608 -0.263160 0.263558
-0.357615 -0.174957 0.029592
0.079219 -0.011775 0.585027
-0.018748 0.075705 0.481567
0.385515 -0.006890 0.422817
0.449719 -0.316633 0.171616
-0.042277 -0.153791 -0.425555
0.079555 -0.313716 -0.249005
-0.024801 -0.451222 0.028456
0.043727 -0.087057 -0.469114
0.393503 0.237691 -0.346427
-0.344637 -0.363841 -0.104333
0.386105 0.402202 -0.129652
0.483186 0.117019 -0.388962
0.278755 -0.072741 -0.430800
-0.096973 0.213592 0.335259
-0.036957 0.212670 0.349331
-0.239967 0.149194 -0.489627
0.038736 -0.528137 -0.057222
0.024868 0.114055 -0.490688
-0.451148 -0.061620 0.253222
-0.502509 0.543345 -0.062712
-0.140882 -0.498705 -0.124305
0.200600 -0.187658 -0.340400
-0.221643 0.510401 -0.111022
-0.410403 -0.044346 -0.417991
0.413055 0.557106 0.123073
0.293579 0.245392 -0.325907
-0.101869 -0.260308 -0.338935
0.435321 0.241601 -0.393214
0.075601 -0.170745 0.410617
-0.365211 0.431633 -0.151281
-0.141464 0.521887 0.036838
-0.449565 0.094872 -0.084476
-0.291470 0.235935 -0.327998
-0.343716 -0.076526 0.552565
0.031599 0.415199 -0.177055
-0.456604 0.131625 0.064428
-0.187186 0.459002 -0.134763
0.501608 -0.045918 -0.193360
-0.105500 -0.042322 0.572972
0.310997 0.438938 -0.152909
0.165906 -0.103094 0.534556
0.006062 -0.520269 0.085182
0.020364 -0.347462 0.167808
0.476728 -0.429520 0.100659
-0.258059 -0.151265 0.503489
0.422650 0.198738 0.463528
0.432311 -0.354002 -0.133661
-0.300463 -0.180728 -0.457147
-0.518823 0.439706 0.030725
0.475279 -0.227295 0.059818
-0.430354 -0.027341 0.180305
0.031303 -0.432131 0.049858
-0.222619 0.273074 0.251918
0.444270 -0.102382 -0.174595
0.383606 0.356955 -0.148367
0.401025 0.092018 -0.367876
-0.131774 0.221366 0.320322
0.052302 0.102680 0.471950
-0.453407 0.568023 -0.093023
-0.111239 0.373869 -0.241620
-0.172682 -0.529900 0.098831
0.433065 0.078728 -0.331856
-0.073567 -0.499537 0.123142
-0.229148 -0.133094 -0.486055
0.421405 0.137460 0.049796
-0.058690 0.319599 -0.275587
0.363396 -0.037488 -0.445183
-0.492749 0.015386 0.433717
-0.236692 -0.490162 -0.008919
-0.161777 -0.098853 0.611309
0.423283 -0.375291 -0.115714
-0.050137 0.602328 -0.070198
-0.358694 -0.325892 0.246399
-0.098208 0.413920 -0.158949
-0.070536 0.578397 -0.000457
0.364743 0.249129 -0.324139
-0.279132 0.163079 0.342459
-0.238897 -0.538746 -0.108382
0.442631 -0.297688 0.156159
0.340661 0.245205 0.401981
0.479781 0.222965 -0.426895
-0.277893 0.573257 -0.041282
-0.370513 -0.066368 -0.229366
0.459323 0.070818 -0.224146
-0.345572 0.137172 -0.423004
0.437334 0.168047 0.377023
0.064188 0.133039 0.446143
0.498017 0.059864 -0.320706
0.100082 0.205339 -0.399307
0.362259 0.062179 -0.463718
0.110921 0.620990 -0.055022
-0.110476 -0.208440 -0.389394
-0.196754 -0.478440 0.007802
0.502436 -0.156643 -0.051749
0.274201 -0.120235 0.458753
0.219227 -0.400134 -0.137356
-0.546351 0.040717 0.389996
0.335922 0.610683 0.058773
0.034818 0.201393 0.375685
0.012999 0.152643 -0.501902
0.392746 0.496716 0.025332
-0.088822 -0.147058 0.521509
-0.282993 0.056758 0.441148
0.381999 0.635653 0.045537
0.125273 0.215841 -0.387771
-0.440180 0.028290 0.433206
-0.434224 0.168145 -0.169466
-0.360136 -0.291266 0.312458
0.487557 -0.421391 0.183277
-0.556279 0.508998 -0.113603
0.367155 0.407223 -0.188941
-0.167522 -0.487112 0.125459
0.510242 -0.363885 0.144140
0.405584 0.088875 0.009116
-0.218759 0.567177 -0.022575
-0.312864 0.452337 -0.134180
0.333269 0.358905 -0.218281
-0.335980 -0.426899 0.129800
-0.013189 -0.403157 -0.185669
0.195100 -0.044493 -0.475658
0.086099 0.297945 0.296579
0.284038 -0.381351 0.183725
-0.231601 0.458092 0.076726
0.395779 0.238275 -0.420181
-0.249206 0.351559 -0.222295
0.168890 -0.476203 -0.001571
0.126987 0.637059 -0.011904
-0.336360 -0.185965 0.420575
-0.265721 0.021671 -0.478918
0.082369 -0.319164 0.263305
0.216525 -0.291986 0.230418
0.400015 -0.090412 0.139534
0.416197 0.395966 0.277461
-0.219034 0.291756 -0.300137
0.297051 0.444998 -0.136916
0.303264 0.146377 0.486273
-0.371949 -0.292061 -0.048685
0.461679 -0.433748 0.171113
0.430279 -0.196820 0.131990
-0.182048 0.203759 -0.387522
0.513966 -0.296516 -0.001373
0.248017 -0.442466 0.019627
0.027080 0.270569 0.309219
0.010973 0.100024 -0.446567
0.189851 -0.444144 -0.102613
0.318911 0.385473 -0.196926
0.364905 0.440472 0.224505
0.440233 0.033739 -0.313397
0.178081 0.594988 -0.068631
0.343045 -0.010485 0.641885
-0.123911 -0.459171 0.140528
0.322309 -0.482919 -0.037160
-0.015801 0.625473 -0.032483
-0.410167 0.058319 -0.456577
-0.056320 0.306734 -0.294452
0.427315 0.014580 0.132128
0.383965 0.581890 0.096303
0.116309 -0.045633 -0.491928
0.009089 0.587967 0.008108
-0.267744 -0.396517 0.148637
0.378968 0.341299 -0.232385
-0.385052 -0.358420 -0.147410
-0.533385 0.270208 0.087294
0.462057 0.063857 -0.218950
0.097600 0.025621 -0.546131
-0.174096 -0.062919 0.577157
-0.015769 0.487642 -0.109254
0.090267 -0.486546 -0.084825
0.430622 0.206914 0.441508
-0.087399 0.278776 0.276340
-0.351739 -0.037028 -0.434623
-0.235965 0.011352 -0.507165
-0.310456 -0.282672 -0.316540
0.493662 0.048115 -0.268464
-0.094573 -0.529445 -0.025604
0.001985 -0.096590 0.604500
0.276306 0.545248 0.106913
-0.416744 -0.189382 0.457866
-0.190318 -0.150839 -0.460896
-0.341607 -0.483702 -0.014668
-0.505873 0.142515 0.173196
0.400634 -0.187320 0.391038
-0.169910 -0.295426 0.244681
0.059233 -0.301627 0.227408
-0.374240 -0.269767 -0.048977
-0.169977 0.174222 -0.419069
-0.230831 -0.314458 -0.316611
0.143943 -0.359077 0.214759
-0.026569 0.233054 0.332533
0.336850 -0.274931 0.259281
0.374627 -0.085351 0.509090
0.170087 0.294101 0.318663
0.367186 -0.038531 0.664115
0.428291 0.344878 0.268670
-0.383643 -0.095902 -0.203677
0.450980 -0.297686 -0.182283
0.433665 0.189013 0.422193
0.418868 -0.047904 0.202671
-0.270300 -0.069640 -0.554523
0.439550 -0.048824 0.020574
-0.406713 -0.176735 -0.311906
0.067872 -0.126694 0.461912
-0.376834 -0.237402 0.377749
-0.131720 0.588754 -0.023619
0.238656 0.059202 0.553669
0.515422 -0.419059 0.152267
-0.454046 0.020589 0.202740
-0.423359 0.545146 -0.115447
0.425963 0.115817 -0.371136
-0.365375 -0.082900 -0.041593
0.026339 -0.282908 -0.289562
0.188774 0.137924 -0.475725
0.060746 0.076691 -0.466308
0.369975 0.421175 -0.011082
-0.120834 -0.193857 0.395073
-0.369691 0.108380 -0.544559
-0.441543 -0.175701 0.159626
-0.248480 0.084555 -0.495176
-0.133051 0.098338 -0.481190
-0.391403 -0.242458 -0.131988
-0.202557 -0.462100 0.034601
-0.022005 0.290097 0.280134
-0.179099 -0.514144 0.117179
0.042388 0.205651 -0.395908
-0.187023 0.602387 -0.064834
-0.283361 0.333452 0.182023
-0.397108 -0.298452 -0.091926
0.400811 -0.206334 -0.278856
0.207008 0.055998 0.549702
0.416685 0.245689 -0.119818
-0.276242 0.189779 -0.361377
0.429499 0.084386 -0.005057
-0.372303 -0.322869 0.183818
-0.535377 -0.044333 0.480244
-0.304946 0.490597 -0.115048
-0.004121 -0.532306 -0.028544
-0.162186 -0.276585 0.268986
0.418945 -0.232611 -0.112431
-0.036730 0.228679 -0.361267
-0.378778 0.058255 -0.128785
-0.380869 -0.501365 -0.012501
0.206121 -0.479187 0.121438
-0.533104 0.134466 0.209078
-0.367112 0.268010 -0.285304
0.433375 0.058540 0.159723
0.023589 -0.262215 0.274513
0.383441 0.094995 -0.393644
-0.314799 0.472162 0.045242
0.112090 0.607043 0.012918
-0.072734 -0.188805 0.400645
0.146134 0.359616 0.252054
0.051877 -0.341466 0.173124
-0.504583 -0.115605 0.410483
-0.048180 0.627490 -0.044339
0.237132 0.166342 0.453027
-0.240081 0.190185 -0.388354
0.039973 -0.470619 0.003684
-0.269780 0.471645 -0.123860
-0.139051 0.498183 0.059561
0.388909 0.497065 0.004141
-0.325556 -0.187104 0.508215
0.182271 0.360353 -0.249466
0.247152 -0.405617 0.181682
0.185237 0.607649 0.028449
0.034873 0.431784 -0.146025
0.092712 0.204289 -0.401311
-0.078633 0.143583 -0.506718
-0.275335 -0.235589 -0.400251
0.375798 -0.106386 0.451088
0.061965 -0.030674 0.598924
-0.539219 -0.095942 0.507595
0.259472 0.622857 -0.059269
-0.240593 -0.206052 -0.420262
-0.535666 0.258151 0.100053
0.420529 0.406196 0.254528
0.017379 -0.482015 -0.105106
0.116903 0.444490 -0.151125
0.107852 -0.194724 -0.354193
0.362090 -0.439069 0.162604
-0.234900 -0.533629 -0.112293
-0.363421 -0.087002 -0.160574
-0.362794 0.127524 -0.365993
-0.427167 0.228971 -0.134090
-0.088585 -0.085865 0.617460
-0.033470 -0.404684 0.165561
-0.370111 -0.568749 0.064720
0.299724 0.032923 -0.525121
-0.157691 -0.089724 -0.510939
-0.388840 -0.309871 0.245396
-0.450200 0.341950 0.137349
-0.320665 0.536257 -0.016055
0.424511 0.446731 0.177665
-0.398810 -0.141333 -0.340948
-0.083555 0.269636 -0.328317
0.374204 0.291706 -0.282352
-0.382910 -0.076873 -0.224324
-0.262097 0.025779 0.474751
-0.067035 -0.429938 0.148807
0.057764 -0.120325 0.559125
-0.040936 0.165492 0.392624
0.150924 -0.231828 0.359736
0.451710 -0.297849 0.023341
-0.541899 0.229990 0.150597
0.361745 0.129947 0.514527
-0.350468 -0.394943 0.061245
-0.325800 0.340072 0.166485
0.072561 -0.504437 0.105749
-0.114152 0.007068 -0.546261
0.041552 -0.009126 -0.542560
0.415639 0.584133 0.081463
0.302642 0.251000 -0.324658
0.418728 0.447607 0.199383
-0.298368 -0.410786 -0.077752
0.396326 -0.381650 0.089251
-0.297750 -0.344338 -0.175821
-0.414731 0.263401 -0.254976
-0.109208 0.294736 0.256598
0.382685 0.332500 -0.168141
-0.054460 0.015835 -0.550674
-0.083051 -0.317849 -0.280918
0.098049 0.266624 -0.330399
0.095602 0.431966 -0.143933
0.231686 -0.107033 0.580488
-0.398730 -0.133592 -0.321434
-0.343389 -0.463720 0.119805
0.451141 -0.174225 0.049942
-0.017293 -0.329243 -0.255779
0.393790 0.173998 0.292100
-0.424926 0.068963 -0.071556
0.318454 0.440632 0.214132
0.239992 -0.375369 0.184858
-0.363387 -0.337153 0.124931
-0.455690 0.089201 0.111555
-0.024271 -0.223306 -0.356505
0.380780 0.357521 -0.136672
0.421471 0.438140 0.186856
-0.351218 -0.055945 -0.427819
0.250056 0.578293 -0.057832
-0.357023 -0.072419 -0.109781
0.140279 0.121204 -0.438231
-0.251079 -0.474111 -0.008197
-0.282354 -0.334760 -0.308940
0.424758 -0.371819 -0.010087
0.133410 -0.455618 0.151220
-0.167025 0.087679 -0.513667
-0.374366 -0.064782 -0.138728
0.001934 0.610731 -0.064366
-0.165572 -0.256293 0.349153
0.009086 0.065793 -0.481145
0.395219 0.154988 -0.124260
0.042600 0.471716 0.124319
0.364988 -0.392079 -0.112823
-0.443178 0.306332 -0.073688
0.102720 -0.056036 0.631638
-0.254286 0.016054 -0.493682
0.018782 0.230043 0.345333
0.429196 -0.215457 0.132813
0.444849 -0.061627 0.603246
-0.126354 0.077606 0.456105
0.409183 -0.038878 0.508280
-0.214808 -0.228151 0.379843
-0.313021 0.136976 -0.424351
0.423692 -0.345150 -0.015419
-0.211751 -0.070073 -0.541235
0.269332 0.127709 0.496283
-0.400183 0.028957 -0.490506
0.414587 0.119228 -0.173047
0.407504 -0.074484 -0.400837
-0.028254 -0.445952 0.036144
-0.390892 -0.218343 0.176474
0.146052 0.611658 -0.068597
0.420709 0.180764 -0.472496
0.415044 0.510422 0.165160
0.032419 0.011607 0.552837
0.169568 -0.315432 -0.227592
-0.332907 -0.359245 -0.098149
-0.282784 -0.094375 0.582686
-0.415638 -0.012040 -0.083904
-0.193943 0.434156 0.107423
0.420544 -0.443871 -0.052105
-0.354321 0.172776 -0.388654
0.425554 -0.315269 0.184925
-0.339401 0.080987 0.406051
0.409785 -0.004192 0.207001
-0.389875 -0.444799 -0.065151
0.355823 -0.082736 -0.404483
-0.246497 -0.169472 -0.455811
0.219468 0.044775 0.562952
0.109066 -0.101483 0.596767
-0.290241 -0.280447 -0.361530
-0.337214 -0.410963 0.125171
-0.362617 -0.359123 0.197503
-0.384075 0.001938 -0.306509
0.394676 0.078018 0.275908
0.386629 0.564494 -0.055157
0.034503 -0.445384 0.035982
0.429199 0.156115 -0.412577
0.441700 0.231185 0.302118
0.061169 0.034524 0.537709
-0.361188 -0.324928 0.016012
0.410672 -0.049702 -0.423344
0.000544 -0.276005 -0.301701
0.001628 0.486497 0.101463
-0.322666 -0.012497 -0.421303
-0.293791 -0.463109 0.011442
-0.346652 0.586871 -0.069160
-0.491558 0.418395 0.056677
-0.416775 -0.194342 0.198925
-0.539814 0.314526 0.143300
-0.363929 -0.370673 0.179510
0.431553 0.039248 0.183127
0.405667 0.017350 0.258042
0.124342 0.527734 0.089865
-0.084533 -0.372658 -0.229925
0.392654 0.057636 0.084133
0.249708 0.224675 0.401183
0.446058 0.151955 0.385533
-0.290575 0.069319 -0.517800
-0.014806 -0.251735 0.338776
0.442221 0.087101 0.506936
-0.434641 -0.146104 0.200276
0.172214 0.484941 -0.104631
-0.497260 -0.036812 0.481592
0.239602 -0.229089 0.383738
0.183447 0.303623 0.312689
-0.404149 -0.051335 -0.451789
0.326414 -0.395534 -0.118077
0.450542 -0.181131 0.061773
-0.139342 -0.036721 -0.556529
-0.160593 0.167885 -0.390644
0.415213 0.216585 -0.001508
0.102541 -0.149635 -0.397579
0.290630 0.223943 -0.350636
0.380739 0.545069 0.130065
0.436076 0.042156 0.167529
-0.425172 -0.133877 0.261645
0.376739 0.341299 -0.054742
-0.110347 0.281775 -0.274984
-0.173743 0.156495 -0.496247
-0.309072 -0.263786 -0.200181
-0.515388 0.187045 0.268025
0.203817 0.645141 -0.002562
-0.338227 0.139868 -0.493223
-0.113350 0.175601 -0.389019
0.357760 -0.451007 -0.059238
-0.195998 -0.454061 0.139486
0.325272 0.666786 -0.027059
-0.228784 0.022608 0.485050
0.514011 -0.305467 0.010552
0.133455 -0.343019 -0.209708
-0.301375 -0.209847 -0.245573
-0.288712 0.579309 -0.085883
0.427009 -0.292392 -0.192514
0.273555 0.248729 0.383912
0.214459 -0.347170 -0.187997
-0.446391 0.008871 0.450018
0.374683 -0.310133 -0.187418
-0.158662 0.001607 -0.532574
-0.397777 -0.013457 -0.314125
0.451870 -0.393284 -0.041404
0.385578 0.192665 -0.044327
-0.420886 0.135608 -0.198671
0.048914 0.392349 -0.239481
-0.370715 0.249826 -0.309969
-0.044460 0.598088 -0.074246
-0.369178 -0.031156 -0.260512
0.336470 0.576564 0.090836
-0.528646 -0.156051 0.503095
-0.231554 -0.548088 -0.098018
0.386533 0.046913 -0.462440
0.241111 -0.408366 0.087193
0.027280 0.505701 0.089130
-0.302553 0.207611 0.295613
0.404342 0.307952 0.001552
-0.046169 -0.442936 0.055026
0.141564 -0.294323 0.229598
0.135736 0.030747 -0.543286
-0.351462 0.179043 0.311595
-0.512281 -0.081783 0.399615
-0.102534 -0.159913 -0.433083
0.417710 0.260695 -0.011139
0.216283 0.063597 -0.470660
0.339714 0.159710 0.481813
0.196281 -0.016475 0.615192
0.436881 0.024926 0.629385
-0.162269 -0.230518 0.375806
-0.355169 0.351501 -0.231527
0.066422 0.200185 0.383772
-0.299134 -0.199220 -0.333635
-0.188111 -0.540524 0.087508
0.454284 -0.343861 0.193489
-0.110237 -0.488546 -0.127073
0.421996 -0.342328 0.189831
0.152670 -0.011292 -0.516081
0.274202 0.408066 0.234882
-0.258667 -0.527057 -0.067331
-0.337110 -0.538117 0.098385
0.194005 0.497166 0.133815
-0.218924 -0.131863 -0.484957
0.359348 -0.382430 0.079129
-0.428655 -0.006245 0.468074
-0.178743 -0.441989 -0.185740
0.293525 0.426190 0.222166
-0.082978 0.181036 -0.457685
-0.109903 0.589216 -0.019250
-0.169838 -0.504991 -0.026226
0.254138 0.595372 0.055107
-0.423566 0.301112 -0.216716
0.070735 -0.022506 -0.523611
0.024405 -0.467586 0.015193
-0.232910 0.367306 0.161433
0.244312 0.331022 0.300432
0.429610 -0.058770 0.221111
-0.142314 -0.328905 -0.283606
0.283965 0.464134 0.184539
-0.382287 0.131544 -0.290518
-0.294804 -0.445796 -0.045094
-0.538914 0.090299 0.291777
0.195460 0.560035 0.075276
-0.298315 -0.174921 -0.370023
0.431670 0.403351 0.160132
0.048085 0.572914 0.030783
0.179119 -0.096078 0.597853
0.416465 -0.181411 0.265289
0.448809 -0.198862 -0.275291
0.436905 0.170383 -0.464318
0.391237 0.544419 0.000168
-0.076379 -0.379654 0.169937
0.271327 0.002465 -0.502852
0.445533 -0.256970 -0.174093
-0.304428 -0.145671 -0.369827
0.019839 0.375171 0.209696
0.427549 -0.298588 -0.186594
-0.478941 -0.184828 0.528004
0.498323 -0.035405 -0.247503
-0.058748 -0.139408 -0.442647
0.385651 0.342851 -0.183719
-0.535966 0.066834 0.294254
0.397960 0.081438 0.060884
-0.126874 -0.241804 -0.361762
-0.043004 -0.363400 -0.229455
0.052449 0.336483 -0.265705
0.322716 0.575514 0.088792
-0.407269 -0.288894 0.272054
0.413103 -0.218957 0.311555
0.332330 0.669540 -0.025381
0.498745 -0.018567 -0.187686
-0.300495 -0.415241 -0.180246
-0.110500 -0.494280 -0.121762
-0.210815 -0.344417 0.249622
0.280449 -0.337829 -0.182221
-0.434989 0.016158 0.445706
0.493590 -0.348307 0.144840
0.018099 -0.505985 0.088849
0.387006 0.324982 0.053958
-0.050386 0.485948 -0.109362
0.080555 0.080155 -0.463512
-0.164252 0.592263 -0.076874
0.023575 -0.198416 0.396990
-0.294419 0.313637 0.198140
-0.411480 0.500454 -0.130091
-0.403091 -0.147667 -0.230434
0.506466 -0.187961 -0.133429
0.447754 -0.208194 -0.266785
0.179211 0.218056 -0.368345
0.390373 0.517481 0.026839
-0.346265 0.131685 -0.464037
-0.317585 -0.349091 -0.102247
-0.286910 -0.301089 -0.341469
0.391833 0.079171 0.004749
-0.121945 -0.063172 0.588873
0.258724 -0.429868 0.168899
-0.230880 -0.169999 0.449724
0.276450 -0.426769 0.171156
0.390908 0.560305 0.118039
0.258441 -0.324851 -0.199216
0.187234 0.586744 0.048460
0.126248 0.520159 -0.082472
0.208579 -0.472373 -0.072060
0.115131 0.147372 0.443936
0.457295 -0.340117 0.049319
0.165592 -0.158504 0.435343
-0.340413 -0.232739 -0.030611
-0.540727 0.221714 0.151783
0.310760 -0.266441 -0.242393
-0.411303 -0.168764 0.550174
-0.055220 0.552734 -0.095215
-0.019894 0.117719 -0.526494
0.480596 0.226573 -0.445735
0.035190 0.309111 -0.281454
-0.299199 -0.173616 -0.463528
0.063393 -0.217797 0.370623
0.361102 0.499781 0.168143
-0.402850 -0.146021 -0.253018
0.057321 -0.048753 -0.501987
-0.044077 -0.227432 0.358705
-0.102989 0.418108 -0.152297
0.064525 -0.318683 0.244794
0.331849 0.558896 -0.067237
0.397341 0.014489 0.058980
-0.197921 -0.381922 -0.246202
0.234608 -0.103717 0.571385
0.248125 0.224638 -0.426191
-0.423932 0.272185 0.208444
-0.334291 -0.359639 0.196898
0.387012 -0.279036 -0.213821
0.144157 0.131709 -0.450737
0.461472 0.083025 -0.236830
-0.220260 -0.378989 0.179166
-0.421005 0.133999 -0.124420
0.318879 -0.205978 0.371561
-0.029894 -0.049291 0.596137
0.361354 -0.168492 -0.322971
-0.177386 -0.256022 -0.359565
-0.396671 -0.201929 -0.173429
-0.112271 0.035610 -0.492649
-0.273458 0.538706 -0.007958
-0.110971 0.481381 -0.111345
0.171264 0.360291 -0.248945
-0.382554 0.004137 -0.320480
0.198115 -0.258069 -0.275019
0.492885 -0.082022 -0.185530
-0.178819 0.058207 0.462719
-0.014316 0.393894 -0.195129
-0.247053 0.358299 -0.246030
-0.090507 -0.247725 -0.348216
-0.459734 0.194464 0.014094
-0.036419 0.271185 -0.284736
-0.519493 -0.099351 0.428290
-0.184394 -0.241417 -0.374782
-0.345567 -0.508164 0.004648
0.065957 -0.480079 0.136810
-0.399305 -0.007251 -0.462740
0.115375 -0.268993 0.304351
0.184204 -0.309042 0.208467
-0.162658 -0.474252 0.005675
0.426766 0.305532 0.342641
0.342591 -0.389004 0.173349
0.417905 -0.297999 0.228632
0.156995 -0.508621 -0.007050
-0.396293 -0.276466 -0.222834
