-0.070825 0.328571 0.390680
0.000036 0.058929 0.077864
0.009139 0.057571 0.070741
0.019793 -0.396505 -0.255442
-0.024090 -0.081273 0.071511
-0.066113 0.261317 0.304509
-0.045172 0.169721 0.067352
-0.014370 -0.153129 -0.028503
-0.004262 0.056125 0.162065
0.008820 -0.095448 -0.136552
0.088559 -0.224810 -0.196511
0.197265 -0.438618 -0.091523
0.155428 -0.479264 -0.105012
-0.047086 -0.050879 -0.100549
0.116276 -0.475910 -0.135951
0.050887 -0.361229 -0.095853
-0.077315 0.062807 -0.052446
-0.058881 -0.048832 -0.086596
-0.075041 0.089927 0.137671
0.051801 -0.002546 -0.130439
0.217306 -0.413802 -0.194461
-0.042588 0.020126 0.181048
-0.088921 0.336922 0.387159
0.042119 -0.244649 -0.022859
0.116350 -0.298590 -0.082556
0.091469 -0.225376 -0.197720
0.032523 0.061382 0.026125
-0.086386 0.063328 -0.014190
0.047964 -0.136420 -0.159852
0.163802 -0.370453 -0.148327
0.058667 -0.006290 0.059837
-0.061615 -0.081552 -0.063779
0.115891 -0.474329 -0.139281
0.006038 -0.009080 -0.095138
0.106697 -0.073831 -0.089692
-0.085769 0.020604 0.062136
-0.021980 -0.174140 -0.083239
-0.082413 0.187724 0.078740
-0.021561 -0.053808 0.081843
0.100803 -0.457028 -0.182500
-0.075047 0.179194 0.133155
0.137706 -0.404197 -0.262805
0.052185 0.041710 0.028895
-0.090273 0.049486 -0.014225
-0.061203 0.220813 0.334158
-0.004414 -0.025522 0.101972
-0.039293 0.000432 0.181986
-0.008021 -0.118165 -0.127785
0.127953 -0.129617 -0.121142
0.020194 0.010244 -0.077996
0.132011 -0.436438 -0.203322
0.002779 -0.457173 -0.143765
-0.029752 -0.148228 -0.058770
-0.010682 0.059835 0.129185
-0.007229 0.077776 -0.016866
-0.005801 -0.306860 -0.075746
-0.008289 -0.105328 -0.131809
0.096891 -0.066321 -0.008306
0.166156 -0.333352 -0.182205
0.076884 -0.242824 -0.210340
0.069960 -0.236228 -0.202027
-0.073667 -0.007089 -0.101672
-0.031392 0.136876 0.239267
0.098036 0.021175 -0.134146
0.143351 -0.301995 -0.093375
-0.038178 0.146045 0.202625
0.050521 0.007241 -0.159833
-0.108507 0.344365 0.384137
0.049404 -0.459931 -0.208829
-0.069560 0.124883 0.169082
0.026459 -0.302727 -0.148020
-0.011822 0.016428 -0.074270
0.007232 -0.426487 -0.201580
-0.067947 -0.066641 -0.040468
0.062166 0.112220 -0.131390
-0.030806 -0.142103 0.004078
-0.059911 0.098155 0.212382
0.103929 -0.371980 -0.319928
0.034131 0.035894 -0.047547
0.192884 -0.384183 -0.164608
0.110619 -0.353103 -0.110588
-0.082849 0.004426 0.070839
0.104648 -0.179771 -0.019810
-0.060544 0.156231 0.269564
0.081133 -0.385610 -0.113806
0.045754 -0.383729 -0.326667
0.169675 -0.387476 -0.275589
0.139647 -0.241288 -0.183881
-0.076689 -0.005713 -0.060373
-0.088444 0.025745 -0.049429
0.035331 -0.232615 -0.019062
-0.092515 0.310354 0.343611
0.004562 0.003196 -0.081559
-0.063759 0.262196 0.303058
-0.082464 -0.008855 0.049520
0.154213 -0.308314 -0.222130
-0.004591 -0.177772 -0.010341
-0.069116 0.089040 0.193777
0.189870 -0.362412 -0.187486
0.160839 -0.275064 -0.157967
0.067633 -0.276192 -0.045595
-0.072402 0.170549 0.234636
-0.031306 0.109117 0.219319
0.109088 -0.274889 -0.070095
-0.078147 -0.035783 0.064898
0.153100 -0.479509 -0.100333
-0.058951 0.244206 0.353131
0.089559 -0.436657 -0.229327
0.070927 -0.126836 0.036355
0.063401 -0.353110 -0.319010
0.058299 -0.325855 -0.249603
0.020986 -0.301861 -0.145255
-0.040585 0.225606 0.323743
0.217854 -0.371050 -0.277700
0.066510 0.068514 -0.151566
-0.092345 0.031205 -0.025575
-0.009713 0.077042 -0.017970
0.089774 -0.018870 -0.029149
-0.047870 0.095207 0.015420
-0.052212 -0.087767 -0.031860
-0.061450 0.254126 0.347354
0.109604 -0.222950 -0.049017
0.128229 -0.435448 -0.207609
-0.049920 0.201766 0.124094
0.119101 -0.130846 -0.035595
-0.006063 -0.020430 -0.134758
0.126943 -0.165545 -0.142735
0.078554 -0.239804 -0.211227
0.066893 -0.126411 0.039193
0.000846 0.073471 -0.129291
0.041664 -0.398439 -0.120337
0.046888 -0.327713 -0.076624
-0.062431 0.197456 0.069530
0.067226 -0.398309 -0.120977
-0.017225 0.042890 -0.084401
0.209809 -0.419099 -0.129126
0.019372 0.005435 -0.106069
-0.094625 0.139876 0.117707
0.056877 -0.355032 -0.318132
-0.014618 -0.142771 -0.113163
-0.084451 0.012314 -0.075949
-0.033631 -0.058796 -0.143328
0.133495 -0.336930 -0.261647
-0.042464 0.303231 0.363503
-0.031932 0.049854 0.166632
0.155382 -0.227041 -0.097348
0.027675 -0.394575 -0.251133
0.003774 -0.371478 -0.101295
0.160744 -0.443153 -0.172301
0.124213 -0.176965 -0.157309
0.058926 0.009597 -0.053686
0.087015 -0.066035 0.009585
-0.011787 0.096897 0.159640
-0.082806 0.113217 0.170876
-0.053734 -0.053830 0.083177
-0.071716 0.075930 -0.039421
0.004172 0.058899 -0.109467
0.010564 0.071089 -0.130854
0.090009 0.019975 -0.119020
0.198045 -0.365973 -0.289455
0.022551 -0.495772 -0.155483
0.120419 -0.423847 -0.121827
-0.075873 0.176103 0.148772
0.114454 -0.160177 -0.166067
0.145635 -0.461833 -0.145187
0.190157 -0.471550 -0.096477
-0.063136 0.327207 0.368463
0.006987 0.004261 0.108839
-0.040176 0.236829 0.146745
-0.030779 -0.139316 -0.002271
-0.056717 0.210540 0.132592
-0.001775 -0.180571 0.011030
-0.080338 0.070451 0.118990
-0.066794 0.199907 0.303100
0.102081 -0.341572 -0.275153
0.045138 -0.478544 -0.131455
-0.012631 0.078641 -0.116366
0.071358 -0.345909 -0.091835
0.061239 0.029889 -0.167203
0.037601 0.005022 -0.109239
0.141921 -0.143388 -0.081187
0.103332 -0.095097 -0.012190
-0.021145 -0.378684 -0.135813
0.052171 -0.039267 -0.113380
0.126683 -0.418284 -0.121137
0.210770 -0.406801 -0.212217
0.045940 0.073054 -0.120514
0.024037 -0.470623 -0.203722
0.148323 -0.355167 -0.118051
0.049849 -0.399708 -0.326289
0.064420 -0.344402 -0.089296
0.175343 -0.315950 -0.221030
0.157227 -0.191601 -0.082015
0.097416 -0.194905 -0.185401
0.015095 -0.480539 -0.189905
-0.018823 -0.172357 -0.044601
-0.028318 0.175561 0.097009
0.032650 -0.338616 -0.078831
-0.084541 0.046450 0.145984
0.092763 -0.186907 -0.013629
0.030763 0.015768 -0.168255
-0.089498 0.023977 -0.033391
-0.015431 -0.185461 -0.109049
0.097264 -0.177005 -0.013965
-0.027493 0.163612 0.083577
0.008236 -0.437909 -0.131004
0.113689 -0.233499 -0.192954
-0.002129 -0.475216 -0.187429
0.029461 -0.022915 -0.101459
-0.014351 0.021910 0.142279
0.122007 -0.129981 -0.117557
-0.001559 -0.448058 -0.164186
-0.106541 0.107257 0.094145
0.226471 -0.397776 -0.178086
0.129876 -0.184208 -0.067371
-0.074764 0.176442 0.269748
0.212174 -0.422694 -0.180274
0.040400 -0.424419 -0.167834
0.071498 -0.055085 -0.114448
-0.081678 0.237070 0.323043
0.080084 -0.378831 -0.329893
0.117492 -0.129779 -0.024118
0.035686 0.046391 -0.038971
-0.066526 0.161093 0.270126
-0.084295 0.027814 0.125258
-0.083488 0.092641 0.188643
0.162539 -0.198593 -0.105885
0.111409 -0.158454 -0.150177
0.166109 -0.385573 -0.281529
0.150835 -0.235417 -0.138581
-0.089903 0.003374 0.005473
0.046814 0.033231 -0.049500
0.046478 0.044384 0.002947
-0.011362 0.063356 -0.126175
-0.049438 0.215708 0.124303
-0.083807 0.059242 0.138079
0.138428 -0.448027 -0.176667
-0.085403 0.061422 0.066610
-0.085003 0.033452 -0.086110
-0.006942 -0.172194 -0.141823
-0.039803 -0.111497 -0.002206
-0.022844 -0.050626 0.088971
0.097371 -0.301956 -0.234036
-0.020738 -0.082029 -0.142995
0.149815 -0.449225 -0.167233
0.027128 -0.194118 0.002599
-0.048440 0.272221 0.316574
0.076277 -0.168004 -0.178023
-0.101828 0.105433 0.095856
0.135441 -0.280965 -0.130897
-0.083646 0.072033 0.102693
0.015323 -0.218991 -0.036036
0.186233 -0.381944 -0.168787
-0.082345 0.019088 0.117036
0.065690 -0.352045 -0.315581
0.163275 -0.437027 -0.084613
0.020703 -0.225895 -0.191716
-0.089694 0.009282 0.042336
0.089019 -0.094967 -0.113263
-0.014408 0.125406 0.087460
0.034734 -0.396295 -0.240006
-0.004004 0.029776 -0.154437
0.185250 -0.458134 -0.088246
0.043100 -0.304052 -0.203021
-0.019332 -0.076777 -0.113602
-0.042050 0.198401 0.275356
0.038694 -0.318039 -0.197145
0.226330 -0.373587 -0.267462
-0.086930 0.003028 0.100972
-0.007055 -0.026796 0.097893
-0.076555 0.161695 0.246490
0.009443 -0.177929 0.021517
0.094595 -0.413881 -0.119749
0.197047 -0.358437 -0.198210
0.079858 -0.356292 -0.290020
-0.055521 0.130979 0.041801
0.104164 -0.416788 -0.259076
0.021197 0.067859 0.000878
0.044238 0.007027 -0.059826
0.154776 -0.338409 -0.126920
0.005032 -0.006574 0.112968
0.025071 0.049863 -0.113852
0.071398 -0.286892 -0.058959
-0.028465 0.078404 0.078157
0.060293 0.011861 -0.160433
-0.075359 0.154015 0.224945
-0.053574 -0.103003 0.007202
0.213103 -0.415082 -0.194575
-0.047115 0.245310 0.310338
-0.075834 0.162272 0.236052
-0.058810 -0.097112 -0.053289
0.053207 -0.475469 -0.176085
-0.003397 -0.214239 -0.094214
0.041235 -0.037977 0.073258
-0.081057 0.057163 -0.051571
0.087596 -0.134945 0.008580
0.028726 -0.330375 -0.164833
0.179403 -0.398706 -0.247576
0.083885 -0.225807 -0.199472
0.123846 -0.151083 -0.042420
0.015214 -0.445804 -0.131330
0.180155 -0.319468 -0.226009
-0.093880 0.021731 0.030229
-0.096386 0.296982 0.338496
0.109146 -0.149091 -0.157555
0.094181 -0.344000 -0.282030
0.045167 -0.294152 -0.229448
-0.079804 -0.043370 0.029690
0.068041 -0.033541 -0.129174
-0.085567 0.086069 0.145804
-0.079494 0.093180 0.142012
0.050877 -0.442375 -0.242234
0.010589 -0.182198 0.012862
0.045585 0.001410 -0.073215
0.080414 0.054767 -0.146891
0.075970 -0.246052 -0.027416
0.013742 -0.453889 -0.230486
0.027680 -0.007603 -0.089747
-0.012807 0.084679 -0.130879
0.147741 -0.339695 -0.120441
0.024048 -0.169134 0.035531
0.081193 -0.040891 0.011046
-0.077682 -0.013507 -0.089025
-0.011331 -0.081651 0.072182
0.042404 -0.193360 -0.200973
0.041252 -0.378222 -0.175560
-0.042672 0.220687 0.328703
0.080094 0.070186 -0.126325
0.072547 0.052166 -0.149396
-0.048817 0.002375 0.172896
0.064044 0.053769 -0.150728
-0.027480 -0.072202 -0.121427
0.226895 -0.382593 -0.182890
0.167295 -0.429689 -0.194543
0.006600 -0.322486 -0.146879
-0.073075 0.073716 -0.042473
0.195909 -0.356286 -0.205736
0.133262 -0.482768 -0.111813
0.125436 -0.131928 -0.056012
-0.024439 0.082215 0.176964
-0.081083 0.277770 0.348472
-0.086564 0.303968 0.386092
-0.041521 0.232530 0.329199
-0.069203 0.134972 0.196995
-0.071850 0.164727 0.143972
0.126653 -0.428934 -0.114538
-0.000774 -0.468564 -0.194327
0.038150 -0.301736 -0.051123
0.007738 -0.474607 -0.204630
0.072623 0.017800 -0.022804
0.062508 -0.104713 -0.148838
-0.037933 -0.113561 -0.032801
0.140717 -0.433473 -0.091698
0.049544 -0.387459 -0.117895
-0.076200 0.127912 0.214522
0.033677 -0.348226 -0.182011
0.130529 -0.129481 -0.057304
-0.064883 -0.069397 0.050967
-0.032483 -0.065579 -0.112582
0.060122 -0.145445 0.040033
0.014324 -0.132459 0.040886
-0.035368 -0.105988 0.022544
-0.108152 0.100500 0.059808
-0.065342 0.115253 0.033820
-0.007758 0.017943 0.123069
0.024302 -0.489112 -0.167410
-0.074297 0.154352 0.046842
0.159436 -0.354392 -0.293980
0.133183 -0.347865 -0.298268
-0.046203 0.148146 0.125801
0.060517 -0.190939 -0.182047
-0.055790 0.192978 0.302502
0.242229 -0.347553 -0.232092
0.181041 -0.390277 -0.150825
0.015125 -0.488630 -0.174067
0.062982 -0.178518 0.012063
-0.029843 0.060073 -0.051406
-0.060372 0.224826 0.072155
-0.018778 -0.389632 -0.127689
-0.053555 -0.004806 0.152055
0.148006 -0.353644 -0.114871
-0.064111 -0.063250 0.063160
-0.084460 0.003945 -0.088127
-0.074942 0.108454 0.108555
0.190278 -0.327842 -0.248012
-0.079717 0.098488 0.142763
-0.075768 0.188388 0.263297
0.103564 -0.468001 -0.106940
0.113462 -0.302482 -0.080902
-0.021873 0.022735 -0.164241
0.147322 -0.238706 -0.165933
-0.039717 0.178598 0.272181
0.006250 -0.246772 -0.116365
0.142637 -0.340213 -0.284752
0.157105 -0.199149 -0.082300
0.070951 -0.417873 -0.277637
0.149594 -0.372737 -0.115069
0.012448 -0.005507 -0.148716
0.043749 -0.451495 -0.228844
0.103788 -0.233281 -0.027804
-0.084990 0.053084 0.060916
0.053869 -0.201274 -0.201518
0.054234 0.020482 -0.167880
-0.068802 0.121983 0.117650
0.082460 -0.087343 0.028278
-0.089395 0.066978 0.155245
0.100877 0.047870 -0.135614
-0.044911 0.230336 0.302868
0.060260 0.023660 -0.007598
0.000572 -0.003271 -0.093034
0.047479 -0.373298 -0.280636
0.125554 -0.326696 -0.095831
0.027470 -0.295531 -0.148816
-0.017335 0.101507 0.143614
-0.059980 0.188101 0.297696
0.073330 -0.263817 -0.030750
0.117157 -0.441123 -0.100708
-0.054346 0.187066 0.075133
-0.023367 0.016799 -0.169580
0.003841 -0.119703 -0.142712
-0.013167 0.061912 0.108213
0.035718 -0.210820 -0.194661
0.215610 -0.411079 -0.146576
0.088480 -0.119319 0.010291
0.057934 -0.010930 -0.111620
0.036074 -0.307340 -0.190658
-0.075568 0.197495 0.056565
0.089546 -0.447019 -0.106191
-0.007354 -0.391616 -0.119030
0.039709 -0.126117 0.045374
-0.014339 -0.194382 -0.097003
-0.049608 0.099251 0.086062
-0.059472 0.116192 0.026489
-0.048618 0.234599 0.302395
0.043709 0.048549 0.015724
0.113912 -0.424566 -0.122136
0.080771 -0.156766 -0.169767
0.215564 -0.397951 -0.226535
-0.039716 0.216768 0.296419
-0.084086 0.060922 0.122995
-0.016828 -0.162897 -0.002567
-0.035230 -0.112476 -0.035771
-0.078225 0.080813 0.134895
0.161385 -0.270299 -0.175758
-0.066823 0.090198 -0.022108
0.162437 -0.443619 -0.170334
-0.014379 -0.331519 -0.096219
-0.094653 0.094772 0.068642
-0.019252 0.044348 -0.084546
0.120648 -0.117036 -0.051717
-0.083368 0.064915 -0.037249
-0.095619 0.042629 0.008558
0.007870 -0.078694 -0.160271
0.015725 0.033300 -0.155120
0.116465 -0.286199 -0.224758
0.003226 -0.253119 -0.090535
-0.071108 0.146581 0.207720
0.128789 -0.342093 -0.289910
0.071352 -0.452374 -0.209937
-0.041610 0.165717 0.221913
0.107878 -0.156880 -0.150310
0.179034 -0.354137 -0.288560
0.145640 -0.348965 -0.152165
-0.015601 -0.367822 -0.115093
0.150172 -0.462075 -0.087528
0.220932 -0.405133 -0.209151
0.022874 -0.077431 -0.122083
-0.042954 0.203156 0.105524
-0.040923 -0.022436 0.130681
0.214507 -0.433334 -0.138667
-0.043303 -0.024787 0.124497
0.078649 -0.250976 -0.023815
0.176147 -0.355478 -0.179904
0.078232 -0.042900 0.018500
-0.039886 0.139592 0.252234
-0.052738 0.311693 0.372453
-0.026586 -0.180313 -0.065684
0.058161 -0.030559 -0.082099
-0.074670 0.109663 0.184571
-0.076215 0.187319 0.075019
-0.038482 0.105985 0.046718
0.212452 -0.362573 -0.196657
0.025127 -0.312217 -0.148177
-0.034616 0.137817 0.110504
0.025596 -0.444894 -0.121371
0.061665 -0.075789 0.046026
0.130045 -0.178044 -0.049971
-0.051645 0.002681 -0.159251
0.148961 -0.185921 -0.144298
-0.005987 0.041906 0.141669
-0.101472 0.297778 0.358124
-0.069129 -0.039002 0.101461
0.051405 -0.036393 0.079493
-0.024115 0.050386 -0.055126
-0.036648 0.036546 -0.143881
-0.077301 -0.026675 0.061185
-0.080040 -0.025835 -0.048038
-0.046688 0.215996 0.285281
0.201204 -0.439680 -0.100873
-0.066636 0.274245 0.364888
-0.028954 -0.036196 0.112975
0.052914 -0.435446 -0.254513
-0.053077 0.006338 0.186707
0.091778 -0.024036 -0.034009
0.141744 -0.387725 -0.292493
0.021902 -0.422721 -0.266254
0.129893 -0.449583 -0.085810
0.058848 -0.417345 -0.129778
0.104104 -0.162151 -0.014436
0.067723 -0.153602 0.029434
0.023828 -0.406068 -0.229330
0.017807 0.026798 -0.061052
-0.055135 -0.073025 0.019670
0.242858 -0.360050 -0.262510
0.139883 -0.234725 -0.178665
-0.061726 0.323740 0.349808
0.158343 -0.478427 -0.097530
-0.093059 0.183889 0.080722
0.075191 -0.435301 -0.240924
-0.036786 -0.057264 0.100132
-0.015418 -0.111546 0.060577
0.041050 -0.236630 -0.020045
-0.004963 -0.113755 0.048766
-0.004533 -0.472736 -0.184566
-0.007008 -0.311348 -0.111513
0.037532 -0.436225 -0.262568
-0.011684 -0.340272 -0.095151
0.222150 -0.394678 -0.228830
0.118926 -0.412476 -0.258314
0.028493 -0.248741 -0.202626
0.124309 -0.352792 -0.303892
-0.035721 -0.115792 -0.033291
0.023182 -0.255151 -0.182995
0.133471 -0.158874 -0.066183
0.014044 -0.024357 0.090590
-0.040799 0.057782 -0.081430
-0.051155 -0.045683 -0.096495
-0.077602 -0.011940 0.128375
0.075276 0.014849 -0.047966
0.136615 -0.372202 -0.310020
-0.004366 0.047542 0.151007
-0.081785 0.108175 0.157288
0.148854 -0.203827 -0.121695
0.014691 -0.408165 -0.254605
-0.038024 0.233285 0.144826
0.150626 -0.280740 -0.097786
-0.000570 -0.000828 0.115890
-0.072465 -0.007460 0.113372
0.113317 -0.334576 -0.261906
-0.082238 0.158129 0.057086
0.004081 -0.003142 0.098910
-0.082883 0.028236 -0.091309
0.098420 -0.437384 -0.222388
-0.070907 0.135919 0.125692
0.089230 0.050810 -0.117551
0.140945 -0.146236 -0.133031
0.030743 -0.429984 -0.159062
-0.076614 0.228330 0.327279
-0.034143 0.001331 0.163781
0.058910 -0.280669 -0.231383
-0.071689 0.121548 0.165361
-0.066783 0.199222 0.102504
-0.046018 -0.005400 0.152807
0.165973 -0.361723 -0.165183
-0.075695 0.137994 0.212663
-0.108214 0.097574 0.072137
0.009022 -0.226057 -0.047537
-0.072506 0.279121 0.334302
-0.035334 0.117296 0.168413
0.029674 0.042832 0.065769
-0.010237 0.015831 0.161872
0.132703 -0.374520 -0.116625
-0.023168 0.164605 0.099251
0.188091 -0.331347 -0.209022
0.086614 -0.027091 -0.058475
0.025282 -0.049577 -0.141624
0.067890 -0.312776 -0.252389
-0.088974 0.098723 0.060915
-0.067140 -0.028990 -0.069533
0.044260 -0.390672 -0.118266
-0.081531 0.004465 -0.092999
-0.089391 0.146546 0.172709
0.083963 -0.070157 0.015755
-0.053237 0.111982 0.035746
-0.018674 0.109422 0.087338
-0.078115 -0.030198 -0.008061
-0.090305 0.062823 0.022118
0.046917 0.097678 -0.124564
0.049163 -0.437099 -0.253618
-0.049176 0.018728 -0.149577
0.093387 -0.444844 -0.103310
-0.048400 0.187784 0.291751
-0.074579 0.220636 0.319451
-0.107165 0.155674 0.072900
0.002791 -0.026202 -0.159141
-0.079872 0.021164 0.141203
-0.075348 -0.020328 0.055028
-0.005718 -0.297781 -0.082469
0.076845 -0.443634 -0.117194
0.034412 -0.167622 0.038743
0.135176 -0.185243 -0.151260
0.054797 -0.024866 -0.093269
-0.104550 0.105560 0.093510
-0.112859 0.106783 0.076039
-0.081549 0.236343 0.317763
0.007354 -0.239796 -0.153463
0.021737 0.069947 0.035411
0.081218 -0.045295 0.012760
0.111049 -0.174733 -0.017934
-0.050435 -0.117786 -0.070995
-0.038619 0.175759 0.124521
-0.026650 0.084883 -0.013225
0.118142 -0.122699 -0.035910
0.041671 0.075239 -0.119888
0.134866 -0.354641 -0.111163
0.156328 -0.447192 -0.076143
-0.006831 -0.302688 -0.093860
0.069841 -0.286825 -0.236369
-0.020349 -0.398881 -0.135966
0.035969 -0.399883 -0.308223
0.016197 -0.338105 -0.073424
0.039514 -0.239190 -0.205403
0.054558 0.007376 -0.055672
0.072532 -0.357876 -0.098925
0.100390 -0.063850 -0.013645
-0.078023 -0.023965 0.081384
0.093104 -0.115763 -0.155013
-0.030386 0.112923 0.221351
-0.023128 0.214974 0.304214
0.011646 -0.412726 -0.120490
0.082455 -0.462439 -0.109450
-0.012009 -0.062477 0.075526
0.030119 -0.284038 -0.168013
0.210396 -0.339108 -0.219412
-0.044825 0.033869 -0.136856
-0.069093 0.008478 -0.138866
0.215098 -0.379565 -0.164260
0.122921 -0.122711 -0.054127
0.093692 -0.152722 -0.002253
-0.049423 0.066018 -0.064893
0.116523 -0.210425 -0.050368
-0.084906 0.031481 -0.058742
-0.068801 0.081765 0.188362
-0.083838 0.008617 0.096902
0.150496 -0.403938 -0.255348
0.147350 -0.259363 -0.189742
0.060938 0.013828 -0.113378
-0.071003 0.199036 0.076587
0.033731 -0.184719 0.016708
-0.055874 0.101517 0.011119
0.058484 -0.039540 0.073726
0.012457 -0.076896 -0.137358
0.026972 0.034357 -0.145143
-0.017557 -0.149591 -0.113950
-0.014072 0.077226 -0.020531
0.063035 0.107310 -0.128660
0.087320 -0.471076 -0.163431
-0.052406 0.119151 0.027516
-0.077278 0.093855 0.140403
-0.018468 0.088987 -0.000445
0.116578 -0.289553 -0.079350
0.075489 -0.176330 0.005988
-0.051181 0.013240 -0.160431
-0.010094 0.014171 -0.075815
-0.041067 0.128076 0.166123
-0.027546 0.048885 -0.064123
0.047216 0.047937 -0.159914
0.061651 0.032344 -0.118941
-0.042784 -0.096374 0.034310
-0.071683 0.119722 0.182045
0.051918 -0.310903 -0.062267
0.090000 -0.464654 -0.174317
-0.046488 0.212420 0.280917
0.017821 -0.123876 -0.154986
-0.078709 0.293199 0.384385
0.033554 -0.056309 0.079660
0.021716 -0.036904 0.079169
0.068180 -0.004485 0.028584
-0.086825 0.065593 0.021352
-0.021596 0.048143 -0.112603
0.228404 -0.400347 -0.213853
0.024138 -0.404800 -0.231754
-0.006724 0.021636 0.122618
-0.053942 0.098612 0.123107
-0.086125 0.051895 0.074514
0.078695 0.049683 -0.118625
0.000267 -0.026344 -0.162288
0.071772 -0.011777 0.042486
0.064824 0.051198 -0.141646
0.005426 -0.326122 -0.147031
-0.036747 0.089284 0.076609
-0.068061 0.290015 0.328161
0.054162 -0.079750 -0.132926
0.106346 -0.083798 -0.094650
-0.048670 0.286143 0.346482
0.150763 -0.419070 -0.225597
0.205605 -0.366077 -0.193063
0.142763 -0.147649 -0.085985
0.010817 0.023775 -0.163652
-0.084194 0.109738 0.181866
0.163312 -0.365527 -0.137174
0.087464 -0.253209 -0.213183
0.014947 0.016555 -0.166074
-0.028236 -0.070719 -0.141054
0.032969 0.008784 -0.106802
-0.073747 0.308166 0.326729
0.032841 -0.466796 -0.127555
0.142483 -0.141590 -0.073831
-0.033801 0.165561 0.246177
0.217025 -0.396580 -0.228305
-0.014469 -0.189375 -0.077674
0.158786 -0.426338 -0.206393
0.221301 -0.392148 -0.166040
0.102771 -0.100828 -0.009561
0.090034 -0.286302 -0.221588
-0.022058 -0.003043 0.133156
0.051226 -0.143694 -0.164417
0.022443 -0.110758 0.063282
-0.031303 0.087657 0.196937
-0.032534 0.134584 0.203287
0.021877 0.041703 -0.050322
0.088141 -0.036827 -0.006125
0.043594 0.049735 0.029620
-0.074826 0.117417 0.205515
-0.074725 0.258569 0.325563
-0.027988 0.088167 0.191502
-0.037691 0.237218 0.304681
0.093012 0.023118 -0.140050
0.023963 0.092011 -0.137841
0.054585 -0.380320 -0.115285
-0.044478 -0.024362 -0.150711
-0.028834 0.054698 -0.055534
0.199200 -0.381262 -0.167213
0.162919 -0.367926 -0.300080
-0.067671 0.254134 0.299584
0.034431 0.029526 0.069915
0.068697 -0.304177 -0.068231
-0.013388 -0.096220 -0.117152
0.046834 -0.190790 -0.198793
0.031453 -0.205939 -0.000422
0.008572 -0.096711 0.075634
-0.057852 0.222115 0.278150
-0.069970 0.122713 0.231020
-0.069163 0.154758 0.041786
0.144700 -0.430322 -0.095443
-0.004998 -0.246187 -0.073913
0.119255 -0.406978 -0.268857
0.071127 -0.043750 0.053494
0.136612 -0.193869 -0.081633
0.039672 -0.096256 0.061362
-0.001065 -0.196481 -0.060569
-0.063453 -0.050328 -0.019509
-0.011053 -0.095086 0.076875
-0.005759 -0.473789 -0.159649
0.056939 -0.367069 -0.101514
-0.008373 -0.460176 -0.182592
0.055184 -0.358817 -0.244443
0.004956 -0.425852 -0.205076
-0.063459 -0.051580 0.066129
-0.010550 -0.084401 -0.137628
-0.056722 0.285636 0.334949
0.143537 -0.344065 -0.274264
-0.083988 0.117663 0.029998
0.037419 -0.432882 -0.269175
0.153096 -0.228764 -0.142753
0.127618 -0.269213 -0.202079
-0.034400 -0.134474 0.013631
0.068442 0.016926 -0.114719
0.118486 -0.153130 -0.021138
-0.048820 -0.100369 0.017395
0.011397 -0.035804 -0.147726
-0.080306 0.237860 0.333085
0.166399 -0.430105 -0.094138
-0.076098 0.086006 0.050844
-0.085666 0.158532 0.135140
-0.094498 0.082391 0.099799
0.145072 -0.219132 -0.088416
0.224428 -0.329472 -0.256182
0.081917 -0.399986 -0.305778
-0.037319 0.178274 0.252283
-0.057889 0.122058 0.154656
0.057941 -0.353975 -0.231884
0.114434 -0.128082 -0.119858
0.083338 -0.299758 -0.237920
0.146132 -0.433055 -0.090114
0.066214 -0.349611 -0.288264
0.019474 -0.015991 -0.126308
0.024766 -0.253441 -0.191501
0.022375 -0.459140 -0.126588
-0.098205 0.321388 0.354760
0.008200 -0.424988 -0.203634
0.166798 -0.298672 -0.168808
0.151125 -0.170622 -0.076321
-0.039692 -0.023040 -0.161688
-0.085734 0.020999 0.117156
0.005106 -0.177869 -0.157076
-0.027005 0.212974 0.310430
-0.061614 0.154736 0.049948
0.158704 -0.216340 -0.100996
0.031728 -0.254945 -0.209534
-0.004629 0.101844 -0.116545
-0.062938 0.129254 0.123493
0.048318 0.009736 0.066878
-0.091021 0.124997 0.114420
0.145546 -0.300328 -0.132560
0.075994 -0.478068 -0.122185
-0.074275 0.089311 0.184741
0.059173 -0.474229 -0.174795
0.012601 -0.245517 -0.160072
0.163962 -0.369821 -0.131586
0.230595 -0.391240 -0.230293
-0.081555 0.238079 0.327452
0.100741 -0.335933 -0.264877
-0.018742 -0.047722 -0.171845
0.071230 -0.352719 -0.309121
0.136500 -0.271237 -0.137135
0.143523 -0.263622 -0.087535
-0.027029 -0.107339 0.056067
0.029031 -0.392412 -0.295196
0.166848 -0.377089 -0.135261
0.153898 -0.171035 -0.125188
0.037696 -0.248174 -0.208531
-0.077648 -0.030915 0.083612
-0.041602 0.059581 0.177711
0.113994 -0.121649 -0.112088
-0.030145 0.003139 0.161447
-0.045833 0.246023 0.056335
-0.056285 0.230582 0.072708
-0.014276 -0.139872 -0.112853
0.117255 -0.132135 -0.119551
-0.078340 0.066002 -0.046737
0.229030 -0.378136 -0.256887
-0.051959 0.202406 0.156744
-0.050761 0.094410 0.114474
0.024895 0.070510 -0.134212
-0.042424 0.175521 0.125974
0.076901 -0.373019 -0.328306
0.079072 -0.144082 0.015265
0.142230 -0.368390 -0.111485
-0.030961 0.119864 0.059020
0.107978 -0.218197 -0.024219
-0.045111 0.124565 0.110353
-0.037819 0.014233 -0.167566
-0.040223 0.147386 0.121142
-0.053026 -0.080949 -0.010463
-0.081811 0.031309 0.154455
0.035739 0.020508 -0.060293
-0.053133 0.055026 -0.095393
-0.069966 0.309029 0.382999
-0.047042 0.156917 0.268755
0.058323 0.013111 -0.162596
0.034431 -0.411055 -0.167427
-0.078881 -0.032730 0.068525
0.085751 -0.026709 -0.114198
-0.037651 -0.068676 -0.117463
0.126585 -0.327757 -0.247557
0.126413 -0.104205 -0.097370
-0.078526 0.281269 0.338466
-0.058741 0.050939 -0.103892
0.132997 -0.162447 -0.068823
0.009244 -0.227531 -0.159502
0.189313 -0.458081 -0.090849
0.005531 0.050229 0.088181
0.171709 -0.314924 -0.231723
0.128836 -0.243875 -0.198222
-0.044397 0.186566 0.077678
-0.111453 0.124872 0.093133
0.023114 -0.393368 -0.280497
-0.087801 0.070846 0.173970
-0.010540 -0.201003 -0.129244
0.020852 0.087722 -0.136315
-0.005065 -0.223120 -0.080834
-0.073923 0.208467 0.275556
-0.022711 0.148748 0.078043
0.218821 -0.390126 -0.160163
0.161664 -0.422465 -0.212172
-0.036296 0.203558 0.293113
0.174375 -0.313571 -0.217191
0.090444 -0.480857 -0.142364
0.090914 -0.239692 -0.021010
0.061019 -0.229484 -0.208351
-0.069971 -0.019257 -0.058936
-0.065547 0.127797 0.123638
-0.049783 -0.122542 -0.046469
-0.046989 -0.086126 0.050244
-0.031253 -0.104265 0.041305
0.096320 -0.082270 0.002323
-0.038645 -0.104398 -0.014258
0.134880 -0.132284 -0.123513
0.059225 -0.454658 -0.213024
0.237543 -0.345684 -0.258709
0.145767 -0.217758 -0.150004
-0.058279 0.090948 0.093235
0.093591 -0.255164 -0.035897
0.138731 -0.134702 -0.122942
-0.016964 -0.362414 -0.115026
0.072778 -0.437648 -0.237839
-0.012401 0.052722 -0.051512
0.004075 0.029563 0.115624
0.000887 0.041538 0.111468
0.122871 -0.467049 -0.149166
-0.022953 0.147238 0.072576
-0.089835 0.040008 0.035366
0.141037 -0.481269 -0.110053
0.026481 -0.420700 -0.194298
-0.002989 0.050546 0.095037
-0.043500 0.214354 0.296954
0.141172 -0.300504 -0.222914
0.060944 -0.075307 0.053681
-0.065764 0.268692 0.327476
-0.028182 0.044834 -0.116550
0.110353 -0.068723 -0.033198
0.109969 -0.115075 -0.110165
0.031594 -0.290540 -0.200740
-0.069015 0.040769 -0.110065
0.155278 -0.238789 -0.121370
-0.096822 0.285580 0.357002
0.102435 -0.139284 -0.007495
0.064071 -0.136188 0.036860
-0.005676 0.079162 0.147628
0.230948 -0.331806 -0.248794
-0.096504 0.051165 0.005417
-0.102896 0.326038 0.383973
-0.054414 -0.039520 -0.135173
0.079051 0.097023 -0.144704
-0.062295 0.263519 0.318672
-0.065685 0.158708 0.142015
-0.012112 -0.339396 -0.115691
0.032077 -0.040154 -0.120358
-0.001859 -0.220457 -0.096153
0.094079 -0.405178 -0.288054
0.079893 0.083767 -0.144768
-0.066082 -0.019847 -0.133430
0.068839 -0.480962 -0.155612
0.040340 -0.013156 0.068063
0.003047 0.036153 -0.106567
-0.049269 -0.097581 -0.028874
0.033758 -0.276546 -0.208611
0.028253 -0.406018 -0.184936
0.115867 -0.214957 -0.056661
-0.100252 0.096806 0.120072
0.186302 -0.396037 -0.143908
0.032848 -0.383287 -0.272030
0.023582 -0.419629 -0.121175
0.018207 -0.234104 -0.172718
0.036820 -0.494597 -0.148893
-0.062634 0.166926 0.144562
-0.007021 0.087396 0.162258
-0.032383 0.040635 -0.138555
-0.091043 0.133909 0.117591
-0.032527 0.135832 0.059166
0.012216 -0.251791 -0.133155
0.140310 -0.251617 -0.082956
0.079928 -0.014494 -0.008951
0.049567 -0.482832 -0.133388
0.050795 -0.361421 -0.223579
-0.056697 0.119073 0.046256
0.085945 -0.137343 -0.160644
-0.019709 -0.375828 -0.126750
0.120717 -0.093603 -0.068104
-0.013667 0.025297 -0.166407
-0.075543 -0.034478 -0.040712
0.039773 0.043993 -0.040712
0.033823 -0.390671 -0.254046
0.096160 -0.057598 -0.080137
0.009060 -0.433137 -0.186617
0.136642 -0.449673 -0.174561
-0.020173 -0.141740 0.032022
0.068965 0.079681 -0.126261
-0.057298 0.169782 0.281950
0.001628 0.066724 -0.128588
-0.087864 0.332634 0.390573
0.150403 -0.323133 -0.156946
0.027004 0.032923 0.080814
0.039288 -0.042131 -0.119472
-0.003602 -0.295995 -0.110063
0.013242 -0.065917 -0.176616
-0.087640 0.149708 0.125236
-0.109572 0.348277 0.368962
0.072825 -0.470569 -0.173449
0.007760 0.106274 -0.122982
0.060663 -0.050277 0.064458
0.051559 0.043422 -0.025879
-0.084676 -0.007157 -0.043637
0.001386 -0.220109 -0.068086
0.158014 -0.339736 -0.179432
0.022523 -0.431145 -0.152827
0.095589 -0.167194 -0.174502
0.017841 -0.014602 -0.098248
-0.071081 0.218637 0.322652
-0.085370 -0.020737 0.029747
0.085573 -0.008528 -0.136334
-0.015331 -0.041777 0.104013
-0.090182 0.189129 0.097573
0.082234 -0.138580 -0.168053
0.033534 -0.243016 -0.209443
0.031733 -0.254370 -0.203255
0.178868 -0.448797 -0.149980
0.044108 -0.142162 0.047755
0.113465 -0.264179 -0.068317
-0.030202 -0.135645 -0.025843
-0.070725 0.251181 0.345748
-0.008656 0.044229 0.169291
0.119265 -0.113102 -0.049916
0.121125 -0.242083 -0.201944
0.146405 -0.247921 -0.101845
0.165392 -0.204631 -0.098243
-0.007957 -0.311103 -0.081299
-0.061002 0.122492 0.032268
-0.022657 -0.399603 -0.139808
0.013248 -0.417632 -0.156549
-0.089053 0.088915 0.174857
0.168979 -0.402682 -0.246293
-0.017764 -0.110147 0.044705
-0.021925 -0.145864 -0.002611
-0.078658 0.226249 0.300951
0.133656 -0.444750 -0.186045
0.094376 -0.228636 -0.199327
-0.031335 0.111101 0.169818
-0.062280 -0.065766 0.044016
0.109725 -0.154398 -0.147739
0.021637 -0.364531 -0.096841
0.054902 -0.029473 -0.097328
0.090338 -0.096114 -0.133887
0.158280 -0.420857 -0.217422
-0.053246 -0.048253 -0.127235
0.039160 0.012791 -0.060706
-0.046573 -0.126926 -0.048222
0.128716 -0.303033 -0.227766
0.069886 -0.146048 -0.176267
0.157137 -0.316433 -0.229673
-0.039167 0.065161 -0.061688
0.098227 -0.310879 -0.241707
0.001170 0.051191 -0.051284
-0.007875 -0.239026 -0.076049
0.070315 -0.122193 0.039154
-0.098259 0.076777 0.109848
0.074716 -0.034973 0.030071
0.103975 -0.061190 -0.030964
0.108244 -0.088839 -0.027166
-0.071368 0.139755 0.029711
0.017088 -0.105999 0.072592
-0.081274 0.085214 0.120181
0.081315 -0.101850 0.020697
0.002594 0.015886 -0.103874
-0.055824 0.068562 -0.060447
-0.090778 0.069924 0.158243
-0.038372 0.092489 0.119853
-0.057640 0.207826 0.074734
-0.040076 0.059248 -0.073881
-0.073609 0.261708 0.338807
-0.057778 0.126923 0.030095
-0.079292 0.076456 0.020469
0.137382 -0.397219 -0.276648
-0.049026 0.175569 0.062792
-0.025752 -0.168672 -0.063925
0.079736 -0.439610 -0.229669
0.041330 -0.382602 -0.166423
0.051746 -0.357180 -0.308949
0.043451 -0.021155 0.070553
0.071134 -0.156369 -0.180416
0.055714 -0.190599 -0.180313
0.184551 -0.447224 -0.084280
-0.048670 -0.032731 -0.151065
0.145102 -0.352215 -0.297168
-0.038142 0.163802 0.071081
0.102804 -0.098114 -0.004924
-0.059338 -0.084951 -0.082980
0.052853 -0.355086 -0.314702
0.023458 -0.066662 -0.142935
-0.063289 0.172968 0.144510
-0.014519 -0.328220 -0.097420
0.023109 0.001043 -0.159934
0.034993 -0.019122 -0.106016
0.214258 -0.344273 -0.226454
0.000037 -0.470026 -0.140781
-0.046875 0.086462 -0.026079
0.143352 -0.464763 -0.140882
-0.061044 0.081333 -0.044206
0.030194 0.000659 0.083453
-0.084997 -0.008312 0.097731
0.087065 -0.009185 -0.117096
-0.017277 0.019187 0.169840
0.023715 -0.072447 -0.157884
-0.096228 0.287569 0.339170
-0.084427 0.054368 0.049187
-0.096134 0.103303 0.094500
-0.081089 0.237628 0.329863
0.015099 -0.191477 -0.184036
0.160679 -0.480809 -0.099066
-0.043701 -0.022721 -0.155864
-0.003129 -0.454122 -0.196519
0.122207 -0.346923 -0.281380
0.097266 -0.150070 -0.005743
0.068251 -0.142687 -0.174136
-0.096734 0.137310 0.115070
0.092374 -0.292437 -0.226536
0.113195 -0.096918 -0.039416
0.119554 -0.120552 -0.039831
0.008138 0.043770 -0.050569
-0.025622 0.082279 0.180768
0.003202 -0.465556 -0.203567
0.029909 -0.127150 -0.148911
0.132759 -0.424524 -0.226146
0.202545 -0.418588 -0.110192
0.061084 -0.179940 -0.179535
0.040286 -0.403659 -0.173984
0.036672 0.026263 -0.052641
0.167429 -0.370874 -0.161551
0.101296 -0.122405 -0.140344
0.074447 0.013693 -0.039950
-0.051455 -0.046340 -0.121575
0.008233 -0.252284 -0.116049
-0.003238 0.067250 0.150601
-0.070461 0.068341 -0.057436
0.072833 -0.009156 0.010680
-0.035943 0.027328 -0.155643
0.001789 -0.467258 -0.199835
0.014251 -0.441862 -0.238923
-0.070209 0.047069 -0.086437
-0.081268 -0.025608 0.103127
-0.013001 0.021785 -0.078694
-0.098478 0.282437 0.346943
0.069385 -0.131366 0.035540
0.003932 -0.195294 -0.007802
0.136102 -0.212320 -0.161923
-0.002644 -0.070861 -0.171489
0.014982 -0.132098 -0.156626
0.001982 -0.025524 -0.138361
-0.086070 0.020947 0.074194
0.057868 -0.029225 -0.079086
-0.080525 0.016679 -0.103134
0.083326 -0.300814 -0.071665
-0.035746 0.182549 0.114655
-0.010144 -0.171328 -0.058080
0.203754 -0.428184 -0.110786
-0.044837 -0.002320 -0.161225
-0.047362 -0.112612 -0.043803
0.007315 -0.004412 -0.134598
-0.058521 -0.048404 -0.079539
-0.008022 -0.317088 -0.113103
0.033341 -0.408812 -0.163020
-0.081537 0.138981 0.041089
-0.042891 -0.109691 -0.030434
0.097820 0.042787 -0.127582
0.242195 -0.358584 -0.227789
0.023121 -0.468940 -0.207583
-0.042183 0.196993 0.284523
-0.027035 0.098095 0.063762
0.061449 0.015375 -0.162228
-0.076873 0.074140 0.052495
-0.095960 0.126132 0.112611
-0.008578 0.032068 -0.064337
0.080579 -0.424025 -0.259616
-0.009523 0.049626 0.172228
-0.049997 0.005389 -0.160946
0.016834 -0.329244 -0.148808
0.007941 -0.169928 -0.170571
-0.095413 0.096602 0.062168
-0.104170 0.160446 0.116542
-0.054036 0.162544 0.054831
0.070323 -0.093585 -0.140057
-0.088409 0.054333 0.177492
0.174552 -0.461831 -0.127185
0.049049 0.002991 0.069316
0.049216 0.035030 0.043629
0.024215 -0.051957 -0.121974
0.187227 -0.324074 -0.231763
0.099244 -0.187351 -0.019918
-0.055066 0.249417 0.354492
0.028763 0.004239 -0.140337
-0.084586 0.057032 0.046663
0.093416 -0.021341 -0.128555
0.063735 -0.318984 -0.251823
0.068308 0.082687 -0.126502
0.003757 0.038997 0.096557
0.127439 -0.237560 -0.188268
0.050002 -0.164753 -0.171986
-0.018744 -0.042494 0.092190
0.113555 -0.465604 -0.157791
-0.048690 -0.130007 -0.048843
0.084130 -0.476775 -0.119035
-0.074068 0.124828 0.199122
0.151028 -0.307274 -0.120901
0.018679 -0.262080 -0.036677
0.078576 -0.483833 -0.125943
0.081340 -0.385869 -0.332271
-0.072524 0.193081 0.288975
0.053513 -0.246088 -0.212768
-0.012733 -0.337117 -0.094865
-0.074763 0.188799 0.113860
0.165190 -0.275028 -0.171256
-0.023637 0.206734 0.293923
0.207002 -0.446739 -0.115421
0.080098 -0.305388 -0.073425
0.036047 0.061237 0.019146
-0.080327 -0.016937 -0.015604
-0.064506 0.332301 0.376794
-0.045130 0.222346 0.139820
-0.045534 0.309092 0.348342
-0.076122 0.063743 0.188394
0.056430 -0.154893 0.033281
0.003463 -0.008550 -0.131973
-0.069903 0.041558 -0.093984
0.050650 -0.434292 -0.258178
0.126210 -0.484551 -0.112803
0.151213 -0.170478 -0.114769
0.160359 -0.344826 -0.175000
-0.085233 -0.013606 0.075646
0.061911 -0.393632 -0.330658
0.022738 -0.231405 -0.193802
0.019928 -0.161897 0.042935
0.121535 -0.153544 -0.037192
0.139988 -0.440010 -0.089151
0.025227 -0.465145 -0.128996
0.085750 0.008236 -0.119141
-0.004119 -0.310335 -0.115410
0.019144 0.107590 -0.124588
-0.082861 0.078223 0.003696
0.112643 -0.351242 -0.306505
0.042976 -0.358407 -0.092437
0.021706 -0.407829 -0.117854
-0.049020 -0.063113 -0.075634
-0.041992 0.180637 0.241728
0.025588 -0.112802 -0.138341
-0.070533 0.167715 0.151026
-0.057317 0.169496 0.135836
0.079580 -0.215280 -0.193366
-0.043579 -0.096373 -0.092101
-0.039066 0.132252 0.113278
0.073833 -0.154391 0.022770
0.042568 -0.189541 0.012178
-0.093999 0.084731 0.087440
-0.028687 0.081770 -0.024871
-0.019496 -0.079265 0.071731
-0.046272 0.084262 0.095268
-0.039744 0.190317 0.102790
-0.061756 0.322639 0.370878
0.007837 -0.190577 -0.178314
0.021640 -0.066667 -0.118408
-0.061035 0.145453 0.128503
0.151405 -0.160268 -0.129229
-0.034923 0.155164 0.120010
0.082418 -0.267460 -0.048808
0.056256 -0.172764 0.025465
0.129771 -0.116847 -0.054239
0.064454 -0.019325 -0.130648
0.142502 -0.251508 -0.188226
0.150515 -0.274120 -0.098222
0.111855 -0.073484 -0.058990
0.026419 -0.474719 -0.194232
0.178761 -0.309611 -0.194464
0.243237 -0.373445 -0.257211
0.019009 0.051703 -0.035689
0.043401 -0.390216 -0.218721
0.025964 -0.232634 -0.203200
0.089705 -0.189112 -0.190410
0.144344 -0.340575 -0.153674
-0.085680 0.157340 0.148396
0.017780 -0.020843 0.085885
0.095484 -0.482852 -0.135326
-0.033443 0.117825 0.176760
0.215294 -0.340753 -0.236279
0.148290 -0.445410 -0.175643
-0.086032 0.021781 -0.087129
-0.021757 -0.194217 -0.120527
0.024172 0.035518 -0.055794
0.001922 -0.056632 -0.183015
-0.089436 0.067948 0.167239
0.090822 -0.484694 -0.123260
0.129472 -0.366656 -0.309657
0.028918 0.104061 -0.141616
-0.060034 -0.046917 -0.065274
-0.052831 0.027685 -0.139650
-0.054399 0.314892 0.343901
0.007335 -0.159217 0.041635
-0.070619 -0.018235 -0.055445
-0.022510 -0.401319 -0.151957
0.065728 -0.152679 -0.176773
-0.062387 0.297206 0.336211
-0.046241 0.053527 -0.092427
0.012549 -0.100170 -0.139119
0.029947 0.044784 -0.114295
0.094133 -0.319140 -0.255193
-0.009800 -0.190926 -0.037175
0.061633 0.087185 -0.125960
-0.010465 -0.014166 -0.149161
0.082947 -0.011824 -0.037304
-0.027471 -0.143005 0.002569
0.095541 -0.031988 -0.119294
0.021705 -0.184112 0.012667
-0.046521 0.236807 0.061195
0.067111 -0.251154 -0.028400
0.123653 -0.298666 -0.086984
-0.044703 -0.094878 0.056743
0.038721 -0.207115 -0.195697
-0.057456 -0.051689 -0.088599
0.099127 -0.209747 -0.190774
0.077602 -0.275713 -0.056106
0.069342 -0.346922 -0.287157
0.070639 -0.027189 -0.069179
0.046419 -0.029931 0.077738
-0.071661 -0.022457 -0.093711
0.123186 -0.133978 -0.119506
0.152018 -0.241340 -0.164889
0.156375 -0.407782 -0.244171
-0.048670 -0.147610 -0.061392
0.024791 -0.266190 -0.183012
0.068387 -0.003608 -0.063080
-0.037500 -0.109650 -0.008152
-0.086480 0.031562 0.085832
0.069610 0.002847 -0.113875
-0.026770 0.077102 0.180171
0.199444 -0.354233 -0.208070
-0.091484 0.097552 0.061774
0.108339 -0.106449 -0.104314
0.026746 -0.204077 -0.002364
0.088695 -0.069675 -0.090052
0.036701 -0.154537 -0.173704
0.057400 -0.025148 -0.084732
-0.031336 0.090917 0.072034
0.180298 -0.375478 -0.165474
0.017117 -0.026784 -0.130851
-0.087380 0.087356 0.171699
0.049340 -0.354384 -0.198832
0.069676 -0.183988 0.005690
-0.008093 -0.449401 -0.167180
0.117039 -0.198739 -0.168230
0.031841 -0.160540 -0.179581
-0.060886 0.100023 0.130436
0.129936 -0.382081 -0.118871
0.106572 -0.312852 -0.081034
-0.051267 -0.053491 0.081164
-0.075391 -0.004119 0.110863
0.076544 -0.178396 0.004619
-0.045786 -0.040846 -0.154005
-0.036155 -0.137657 -0.012414
-0.077367 0.248223 0.340632
0.122524 -0.290447 -0.221205
0.202465 -0.355404 -0.282829
-0.000179 -0.237614 -0.071900
0.017933 -0.118389 0.046870
0.041737 -0.328018 -0.196917
-0.008074 0.060097 0.085067
0.031693 -0.398320 -0.116170
0.005973 -0.305311 -0.136985
-0.064048 0.064985 -0.066699
0.033039 0.045695 -0.114126
0.011928 -0.090643 0.077225
-0.068805 0.165678 0.143982
-0.038103 0.017035 -0.165767
-0.031064 -0.010837 0.132286
-0.076549 0.150723 0.227731
-0.084775 0.020681 -0.059532
-0.080743 0.080681 -0.022306
0.000082 -0.207764 -0.155428
-0.087925 0.034322 0.134027
0.002283 -0.051890 0.081437
-0.025542 -0.085094 -0.099806
-0.024348 0.093460 0.169627
-0.011410 0.119962 0.079968
0.062163 -0.235584 -0.212413
0.205741 -0.337665 -0.249087
-0.013804 -0.156864 0.023755
0.118892 -0.292850 -0.222086
-0.065867 0.174947 0.165588
-0.024289 0.046811 -0.122905
-0.065917 0.260251 0.313076
-0.086983 0.156129 0.144955
0.007617 -0.112410 0.071731
-0.074746 -0.051685 0.058475
0.130167 -0.319190 -0.243758
0.016825 -0.249924 -0.176040
0.118678 -0.377603 -0.317862
-0.045838 0.200880 0.298236
0.146102 -0.394075 -0.116421
-0.034106 -0.118354 -0.041533
0.054416 -0.011905 -0.074950
-0.035055 0.056663 0.170912
-0.065042 0.173627 0.178328
0.060092 -0.421987 -0.276355
-0.098645 0.328988 0.392391
-0.079531 0.102750 0.150564
0.018211 -0.217972 -0.027831
-0.054340 0.096104 -0.012425
0.100284 -0.140285 -0.160265
0.076788 0.098298 -0.143360
0.002644 -0.205341 -0.056965
0.034447 -0.426607 -0.121957
0.176597 -0.441590 -0.165483
-0.091268 0.142521 0.181196
-0.008771 -0.366623 -0.148931
0.230573 -0.411392 -0.188982
-0.004697 -0.219182 -0.096543
-0.090587 -0.014244 0.047074
0.007793 -0.250300 -0.149698
0.123452 -0.385427 -0.308376
-0.039685 -0.116421 -0.029574
0.034311 0.023957 -0.135939
-0.028774 0.047841 -0.089336
0.168238 -0.306656 -0.224311
0.002961 -0.208502 -0.150331
0.020775 -0.125413 -0.156130
-0.013750 -0.345725 -0.104114
0.024840 -0.013016 -0.105058
0.015129 -0.252830 -0.147155
-0.093946 0.087505 0.079982
0.038210 0.020254 -0.055327
0.145299 -0.476080 -0.099565
0.003801 -0.161240 -0.163590
-0.036447 -0.076521 0.068442
-0.057668 0.111543 0.100038
0.157519 -0.425022 -0.209754
-0.074865 0.011559 -0.124671
0.172815 -0.377198 -0.293726
0.095285 -0.111207 -0.133900
-0.015465 -0.032925 -0.180650
-0.082731 0.133730 0.127700
0.013364 0.053598 -0.042114
-0.006201 -0.171796 0.007888
-0.073055 -0.048297 -0.032962
0.146264 -0.203160 -0.081016
0.060149 -0.342367 -0.270020
0.067110 -0.341322 -0.088478
0.119197 -0.336231 -0.263011
-0.090258 0.066784 -0.019176
0.046565 -0.386657 -0.213857
0.130041 -0.370911 -0.311437
0.184041 -0.342086 -0.199836
0.104551 -0.236961 -0.195054
0.206225 -0.436703 -0.156588
0.066008 -0.331754 -0.081955
0.097445 -0.403127 -0.289967
0.071211 -0.399070 -0.119339
0.013303 -0.389494 -0.107941
-0.102430 0.320418 0.358330
0.029364 -0.284820 -0.152278
-0.037298 0.234667 0.330754
-0.005893 0.036470 0.128548
-0.097082 0.144864 0.118860
0.047183 -0.304318 -0.210069
0.068622 -0.070923 0.046053
0.217855 -0.388110 -0.158121
0.077431 -0.202866 -0.183474
0.123100 -0.332507 -0.104506
-0.091413 0.052450 0.027299
0.008325 -0.249396 -0.116705
0.091442 -0.010245 -0.132697
0.036094 -0.492293 -0.144790
-0.078949 0.079723 0.008578
-0.063610 0.202383 0.069699
-0.009648 0.004639 -0.174068
0.069520 -0.484530 -0.148212
0.145794 -0.301409 -0.157836
-0.015329 0.022432 0.138867
-0.024781 0.077388 0.074131
0.141673 -0.386412 -0.295105
-0.034629 -0.126702 -0.027794
-0.024505 -0.109574 0.066020
-0.023303 0.121492 0.097848
0.116428 -0.412120 -0.124106
0.119617 -0.377589 -0.120883
0.216867 -0.388122 -0.155592
-0.037261 -0.159492 -0.125337
0.140208 -0.215861 -0.154264
-0.110942 0.152648 0.087152
0.048284 -0.307483 -0.236038
0.063193 -0.084228 0.045203
0.071179 0.053284 -0.142677
0.147750 -0.350259 -0.117803
0.233319 -0.371109 -0.202307
0.017831 -0.375370 -0.169962
-0.088253 0.185445 0.110109
0.138803 -0.134443 -0.064062
-0.004306 -0.182197 -0.002082
-0.040830 -0.128812 -0.049773
0.071807 -0.130589 0.033284
0.003978 -0.135189 0.034581
0.077814 -0.056763 -0.086371
0.087076 -0.452985 -0.198951
-0.070530 -0.071607 0.005737
0.095628 -0.278135 -0.064338
-0.079705 0.080291 0.127189
-0.070905 -0.012516 -0.126610
-0.109512 0.326695 0.375403
-0.095594 0.037278 0.007051
0.153519 -0.272564 -0.195670
-0.073871 0.190268 0.078181
-0.076344 -0.040481 -0.006601
0.116688 -0.416698 -0.251453
0.085026 -0.232772 -0.026340
0.190569 -0.352503 -0.199059
0.007139 -0.258723 -0.116010
0.040256 -0.266767 -0.034918
0.007384 -0.146662 0.035620
0.151678 -0.242584 -0.122832
-0.094595 0.108173 0.108444
0.163254 -0.396954 -0.124189
0.058371 -0.363841 -0.238479
-0.095615 0.011708 0.011282
0.043564 0.096381 -0.142485
0.152484 -0.327687 -0.135820
0.079365 -0.485635 -0.139922
0.100139 -0.136579 -0.005407
0.011007 -0.291174 -0.053666
-0.073707 0.038220 -0.101165
-0.109796 0.136232 0.062045
-0.045646 -0.110400 -0.024837
0.053687 -0.478609 -0.128952
-0.014419 -0.046012 -0.178058
0.125204 -0.230665 -0.192801
0.100147 -0.062634 -0.028018
0.011754 -0.261950 -0.044130
-0.035900 0.126265 0.240175
0.249415 -0.376668 -0.245019
-0.082919 0.064999 0.042830
-0.084768 0.097180 0.113809
0.056397 0.014676 -0.050676
-0.041483 -0.163182 -0.084428
0.002415 0.037259 -0.063347
0.153048 -0.288280 -0.109815
0.087988 -0.282378 -0.219874
0.149598 -0.167382 -0.111679
0.122072 -0.164412 -0.037594
0.039919 0.031971 -0.170078
0.071879 0.002887 -0.042101
-0.036739 0.142574 0.201642
-0.005571 -0.300311 -0.077948
0.182515 -0.320340 -0.228962
-0.013259 -0.342573 -0.112160
-0.069341 0.189989 0.251297
-0.037024 -0.101005 0.023110
-0.070237 -0.002680 -0.135173
-0.002901 -0.209136 -0.121152
-0.035150 0.187355 0.108302
-0.028451 0.213525 0.315666
-0.004006 0.084112 0.020458
-0.052300 -0.024985 -0.140418
0.225849 -0.417445 -0.182018
-0.030276 -0.109430 -0.096849
0.042748 0.051512 0.000143
0.066884 -0.006729 -0.065795
-0.003938 -0.464016 -0.190587
-0.046471 0.108857 0.229969
0.055971 0.036354 -0.024416
-0.081669 0.125943 0.118928
0.106697 -0.064743 -0.075080
0.013279 -0.476081 -0.199751
-0.086268 0.027896 0.117877
0.048215 -0.108006 -0.149537
-0.079776 -0.008359 -0.087338
0.085718 -0.256242 -0.215976
-0.059781 -0.097611 -0.050654
-0.056858 0.007232 0.165780
0.004883 -0.310021 -0.138174
-0.095956 0.014532 0.040007
0.017446 -0.422897 -0.255855
0.055550 -0.339800 -0.244989
0.032757 0.055759 -0.026208
0.119878 -0.296279 -0.084749
-0.009435 0.035108 0.161923
0.149062 -0.430366 -0.204574
-0.059551 0.143291 0.048077
-0.065252 -0.066695 -0.050737
-0.013103 -0.405190 -0.154984
-0.070961 0.151559 0.256403
-0.021071 -0.042642 -0.171399
0.198900 -0.399219 -0.134063
0.107295 -0.195744 -0.018254
-0.077064 0.031780 0.190279
0.012065 -0.182399 -0.178416
0.109908 -0.316735 -0.083987
0.076173 -0.051813 0.023847
0.010205 0.074924 0.037777
-0.081759 -0.013791 0.082215
0.072129 0.067240 -0.125386
0.011617 -0.222574 -0.160374
0.039610 -0.115056 -0.145855
-0.086447 0.170146 0.063342
0.001059 0.103240 -0.131046
-0.100417 0.321215 0.356175
0.103319 -0.376409 -0.114072
0.053661 -0.445406 -0.234575
0.017756 -0.175357 -0.175816
0.001737 -0.303466 -0.135466
-0.067800 0.124579 0.175292
0.014280 -0.445444 -0.156809
0.130876 -0.294447 -0.221864
0.192589 -0.369433 -0.179672
0.059076 0.072377 -0.152674
0.116019 -0.377712 -0.318702
-0.000632 -0.045867 0.083922
-0.013614 -0.133285 -0.125258
-0.041991 -0.063275 -0.124808
-0.039329 0.188142 0.270030
0.033077 0.037820 0.058715
0.005154 -0.144712 -0.156163
-0.072537 0.180383 0.144526
-0.049767 0.314216 0.343609
0.066855 -0.092082 0.049057
-0.057353 -0.096019 -0.087188
0.007971 0.072676 -0.000324
0.073469 -0.328752 -0.256122
0.073594 -0.313935 -0.076666
-0.044022 -0.002797 0.157372
0.014668 -0.239925 -0.170288
-0.033091 -0.143960 -0.119913
-0.094383 0.092542 0.091083
-0.044509 0.242943 0.057624
0.123445 -0.337803 -0.274516
0.128355 -0.227678 -0.175648
0.081897 -0.009981 -0.135327
-0.006386 0.088709 -0.123131
0.066031 -0.126842 0.044766
0.106393 -0.327232 -0.249299
-0.092178 0.096296 0.100383
0.072972 -0.479269 -0.123849
0.155265 -0.175113 -0.125294
0.159867 -0.180470 -0.139575
0.131650 -0.482033 -0.109124
0.015902 -0.245867 -0.044554
-0.015499 0.102381 0.164321
-0.025586 -0.180305 -0.112303
0.020799 -0.283331 -0.046215
-0.032777 -0.183885 -0.121981
-0.001102 -0.428665 -0.131467
-0.065198 0.158439 0.213752
0.114441 -0.416301 -0.253629
0.007510 -0.255861 -0.117787
0.001210 -0.267048 -0.096429
-0.001912 0.034830 -0.102013
0.099986 -0.436593 -0.116010
0.034421 -0.140544 -0.159484
0.151202 -0.443435 -0.177690
0.008373 -0.198349 -0.167685
0.232276 -0.383068 -0.245225
0.039884 0.028347 0.059418
0.138261 -0.422274 -0.227118
0.132943 -0.205624 -0.159455
0.030984 -0.417729 -0.123411
-0.093764 0.075560 0.079570
0.121947 -0.337896 -0.268203
0.179175 -0.376919 -0.290312
-0.043283 0.084826 0.099682
0.007086 -0.273716 -0.055092
-0.042469 -0.012360 -0.156731
0.105888 -0.315453 -0.081714
0.103560 -0.228664 -0.194391
-0.065068 -0.068692 -0.054431
-0.073887 0.108105 0.195646
0.075082 -0.441524 -0.228827
0.111216 -0.435151 -0.218784
0.030556 -0.251961 -0.200252
-0.010061 -0.319457 -0.106767
-0.103905 0.322991 0.358836
-0.051309 0.225411 0.095700
-0.038357 0.139472 0.112427
0.001091 -0.026327 -0.145981
0.165909 -0.374495 -0.150188
0.053104 -0.005206 -0.112039
0.025696 -0.094914 -0.129612
-0.083434 0.096207 0.078697
0.201066 -0.453618 -0.098598
0.105893 -0.340053 -0.279321
-0.083888 0.002516 0.131047
0.063113 0.009815 0.026646
0.043043 -0.235331 -0.204547
-0.067350 0.148655 0.205969
0.063328 -0.449310 -0.115795
0.006914 0.054818 0.078727
-0.052165 0.137572 0.116584
