-0.050414 0.048468 -0.255950
0.014970 0.473542 -0.343358
-0.436266 0.059805 0.050015
0.217036 -0.191138 0.016867
-0.060122 0.303553 -0.291611
-0.382735 -0.288873 0.337277
-0.069853 0.062878 -0.261909
-0.047506 -0.130142 0.276049
-0.103964 0.082444 -0.270953
0.031186 0.031051 0.191754
-0.007626 0.356937 -0.077439
-0.244820 0.197041 0.003930
0.285426 -0.008145 0.039356
-0.219473 -0.147606 0.043593
0.519790 0.073394 -0.231197
-0.053295 -0.147737 0.273321
0.041543 0.024897 0.185456
-0.479667 -0.002761 0.136496
0.318866 -0.207588 0.058443
-0.287026 0.065222 0.087007
-0.292248 0.016351 0.068482
-0.149556 0.159325 -0.342103
0.072652 -0.099109 0.116419
-0.212454 -0.229509 0.244495
-0.113846 0.535774 -0.466977
0.325140 -0.060541 0.077271
-0.230352 0.300242 -0.081561
0.270413 -0.029931 0.072879
-0.234941 -0.194039 0.461289
-0.201217 0.178297 -0.035564
0.172296 -0.026368 0.069419
-0.292794 0.314416 -0.012723
0.255813 0.078041 -0.040038
-0.235303 -0.111695 0.006681
-0.118074 0.102579 0.234925
-0.081147 0.344791 -0.192227
0.399723 -0.103968 -0.153227
0.016153 -0.111838 0.215921
-0.009598 0.047663 -0.262843
-0.178010 -0.284126 0.340134
0.456768 -0.105392 -0.092170
0.163045 0.157413 -0.266833
0.471282 -0.065600 -0.053764
-0.090193 0.093513 -0.284576
-0.006992 0.402502 -0.196176
0.127472 0.303392 -0.287026
0.014153 0.279955 -0.006942
-0.205482 0.080466 0.047688
-0.042026 0.538362 -0.385283
0.231583 -0.087434 0.099006
-0.402793 0.095556 0.199635
-0.366883 -0.113182 0.336553
0.078763 0.366542 -0.324698
-0.158316 -0.303239 0.403438
-0.021770 0.497708 -0.489968
0.031438 0.264756 -0.358477
0.022898 -0.103838 0.211102
-0.329044 -0.195127 0.276569
-0.325093 -0.186321 0.447811
-0.115265 0.525024 -0.419354
0.159650 0.119049 -0.255686
-0.226092 0.271247 -0.301112
0.248017 -0.172951 0.106329
0.281618 0.007318 -0.221138
-0.360268 0.202699 -0.129477
-0.280561 0.097675 -0.205147
-0.028492 0.420906 -0.355018
-0.425383 -0.052969 0.252803
-0.227439 0.248887 0.147229
-0.253062 0.108832 0.267979
-0.152881 0.038055 -0.173653
-0.272554 0.245199 0.161901
-0.175373 -0.148088 0.344751
-0.486315 -0.004647 0.153203
-0.170467 0.283059 -0.179770
0.393844 0.106687 -0.103799
0.129067 0.250780 -0.325952
-0.304150 -0.053675 -0.000725
-0.232370 0.271919 -0.307548
-0.436760 0.063242 -0.059828
0.123186 0.177343 -0.310567
0.429373 -0.050018 -0.170626
-0.156298 0.277987 -0.392230
0.047206 0.075654 0.144762
-0.041899 -0.201741 0.205728
0.357660 0.104251 -0.075864
0.141197 0.293528 -0.253630
-0.322020 0.001124 0.011075
-0.098830 0.409468 -0.068184
-0.125421 0.402715 -0.128157
-0.500721 -0.132772 0.222772
0.084684 0.249190 -0.033939
0.476823 0.113528 -0.197607
0.229337 -0.198770 0.057470
0.165585 -0.130237 0.074288
-0.246248 -0.162414 0.059095
-0.244986 -0.268260 0.466821
0.038903 -0.074544 -0.138700
0.201900 -0.105506 -0.095214
-0.082373 0.043176 -0.217619
0.000299 -0.044482 -0.156309
0.183081 -0.142536 0.073102
-0.102836 0.221454 0.063869
0.122413 0.053103 0.083000
0.356329 -0.100667 -0.149395
-0.060335 0.177463 -0.328357
-0.162494 0.064320 0.293090
-0.254076 -0.186914 0.092167
0.157017 0.251761 -0.290858
-0.050438 -0.113526 -0.055040
-0.105150 0.317047 -0.203295
0.062863 0.108725 -0.282381
-0.102254 0.538028 -0.391672
-0.350659 -0.136102 0.077431
-0.292384 0.188550 0.213366
0.379028 -0.077005 -0.200349
0.444913 0.042113 -0.296826
-0.485877 -0.041905 0.128213
0.044290 0.413329 -0.371610
-0.039609 -0.118273 -0.053021
-0.204332 0.106760 0.273149
0.056005 -0.088365 -0.095059
-0.318309 -0.118093 0.395883
0.489384 0.030847 -0.212897
-0.327137 -0.297622 0.371472
0.045748 -0.065547 -0.143563
-0.271334 -0.166418 0.473878
-0.109407 0.368272 -0.167942
-0.338121 -0.199246 0.221906
0.084414 0.014761 -0.220039
-0.487360 -0.010624 0.208579
-0.142242 -0.238780 0.357468
-0.054042 -0.126278 -0.043896
-0.293613 -0.058767 0.362695
0.020176 -0.060395 0.228685
-0.286845 0.224366 -0.124569
-0.472116 -0.028297 0.115156
-0.124082 -0.233366 0.198481
-0.382931 -0.237287 0.310780
-0.228592 0.272289 -0.125709
-0.153993 0.205573 -0.385518
-0.283007 -0.027964 0.341377
-0.217355 0.304393 0.037432
0.158628 0.175133 -0.095235
-0.138099 0.179575 -0.366985
0.092695 -0.123191 0.035153
0.472078 0.124336 -0.214545
-0.464640 -0.032165 0.087699
-0.293330 0.230750 -0.179410
-0.162312 0.114818 0.235904
-0.452368 -0.153394 0.196103
-0.122885 0.102807 0.237481
-0.252508 0.298121 0.001573
-0.130071 0.277133 -0.384866
0.014273 0.146351 0.095417
0.188406 0.008945 -0.182653
-0.223557 -0.056358 -0.016007
-0.359733 0.192362 -0.038213
0.333352 -0.148449 0.090053
-0.468196 -0.152497 0.245007
-0.105708 -0.162912 0.017946
0.144708 -0.037492 0.065039
0.109843 -0.082365 0.077614
-0.287745 0.061277 -0.013810
0.400424 -0.021993 -0.253321
0.041678 -0.182648 0.145445
-0.323645 0.053622 0.362210
-0.056583 0.464427 -0.363329
0.353298 0.125976 -0.294276
-0.210622 -0.222278 0.264977
0.433436 0.167774 -0.252701
-0.367124 0.154548 0.037219
-0.156735 0.234365 0.061334
-0.522413 -0.076635 0.210937
-0.235716 0.290372 -0.045891
-0.198163 0.009246 -0.056685
-0.299370 -0.213984 0.196231
-0.290812 0.157490 0.000987
0.250999 -0.074313 0.094560
-0.257752 0.360064 0.044484
0.079900 -0.101570 -0.057422
-0.160736 0.177725 0.014964
-0.156046 0.062134 -0.197861
-0.458003 -0.167409 0.221416
-0.289943 0.149195 0.278640
-0.491445 -0.029043 0.140058
0.176837 0.221094 -0.272503
0.026922 0.248161 -0.360637
-0.117035 0.504052 -0.439680
0.065805 0.301518 -0.096715
-0.074152 -0.010287 0.290349
-0.261450 -0.020663 0.002409
-0.225909 -0.063565 -0.019938
-0.383354 -0.160684 0.412393
-0.177957 0.149840 -0.322263
-0.139948 -0.146931 0.336252
-0.301178 0.077475 0.081630
-0.203641 0.073756 0.299524
-0.008222 -0.041451 0.255574
-0.220301 0.059274 0.104763
-0.321956 -0.201700 0.181849
-0.225842 -0.261514 0.460137
-0.131693 0.146593 -0.310631
0.326684 -0.054854 0.077925
-0.273213 -0.177416 0.093826
-0.415306 -0.086344 0.327414
0.316565 -0.180218 -0.020143
0.221856 -0.175266 0.088753
0.389605 0.072413 -0.313608
-0.322532 0.265343 0.022362
-0.189606 -0.009742 -0.078606
-0.287510 0.349630 0.038568
0.278476 -0.005238 0.035539
0.351052 0.038228 -0.278179
0.144069 0.135495 -0.030917
-0.086267 -0.217301 0.227145
-0.263367 -0.005374 0.018926
0.121167 0.312123 -0.269650
-0.045994 0.371668 -0.260029
-0.224792 -0.228125 0.149690
-0.020138 0.105116 -0.293770
-0.432347 -0.139340 0.363713
0.341572 0.130638 -0.222564
0.015206 0.348179 -0.338058
-0.222938 -0.315000 0.352756
-0.268751 0.276597 0.136513
-0.062833 0.091799 0.204318
0.475068 0.039599 -0.134459
0.134991 0.196859 -0.095964
0.323865 0.128690 -0.282981
-0.254676 0.203624 -0.332974
0.088677 -0.035726 -0.171842
0.134125 0.099346 -0.261145
-0.372697 0.160368 -0.148470
0.012110 -0.175228 0.139739
-0.108036 -0.055486 0.309530
-0.282332 0.060494 -0.020395
-0.449608 0.036307 0.092856
0.417233 0.013770 -0.055960
-0.006053 -0.174232 0.034907
-0.231735 0.006211 0.340891
-0.071847 0.281922 -0.305924
-0.464006 -0.132104 0.146464
0.135960 0.131331 0.011587
0.182452 0.224047 -0.231735
-0.020549 0.446657 -0.338297
-0.404214 -0.092218 0.219470
-0.453327 -0.000616 0.228624
0.276816 -0.013423 0.043084
-0.128550 0.380795 -0.148375
0.224331 -0.189917 -0.017574
-0.304858 0.039769 0.095674
0.442256 -0.040555 -0.196801
0.109458 0.135377 0.044431
-0.162211 0.168758 0.012148
-0.378598 -0.183270 0.224370
0.283619 -0.092963 0.109479
0.340597 -0.112354 -0.148961
0.145190 -0.002289 0.071169
-0.383159 0.130584 -0.132071
0.138114 -0.117878 -0.017851
-0.221046 -0.158135 0.343477
0.207236 -0.002336 -0.175832
-0.230660 0.114189 0.219806
-0.100130 0.264781 -0.375159
-0.244777 0.266505 -0.046383
-0.518272 -0.090126 0.183146
0.103084 0.063306 0.095259
-0.207614 0.032957 -0.039250
0.375748 -0.115400 0.034018
0.020560 -0.041399 0.223911
-0.258915 -0.214525 0.266010
-0.176401 0.198985 -0.375578
-0.442899 -0.171082 0.329379
0.291223 -0.094553 -0.159147
-0.315899 0.003622 0.077153
-0.225458 -0.156550 0.383484
0.308551 0.087163 -0.054377
0.268493 -0.058200 0.100095
-0.024583 0.411273 -0.345107
-0.006341 0.375360 -0.348759
-0.191700 -0.153131 0.344530
-0.332839 0.220632 0.099070
0.303255 0.077733 -0.043688
-0.243184 0.093831 0.177319
-0.079747 0.222008 -0.372422
0.215497 0.130848 -0.186642
0.079107 0.038252 0.137473
0.189546 0.114525 -0.224101
0.384030 -0.164298 -0.090925
0.154081 0.139222 -0.066432
0.220713 0.037743 0.027932
-0.132328 0.104803 0.239432
-0.398646 0.143264 0.011033
-0.219809 -0.114933 0.012119
0.066181 0.061479 -0.255356
-0.312723 0.260496 0.125703
-0.284617 0.200490 -0.013393
-0.211258 0.168182 -0.081112
0.387554 0.114353 -0.102310
-0.362402 0.024325 0.387579
-0.304364 -0.035197 0.006944
0.172029 -0.008374 -0.166415
-0.253202 0.250568 -0.049674
-0.184766 -0.177083 0.390183
0.138816 -0.109655 0.005003
-0.447549 0.058155 0.206713
-0.431939 -0.058065 0.047041
-0.115541 0.412663 -0.073904
-0.440830 0.063777 0.287054
-0.095199 0.559505 -0.412614
-0.256318 0.102706 0.178021
-0.166054 -0.219634 0.095531
-0.091873 0.284550 0.042308
-0.352467 -0.048983 0.355653
0.117580 -0.083592 -0.073100
0.275976 0.099974 -0.153327
0.070263 0.356009 -0.264726
-0.389551 0.051467 -0.073249
-0.063327 0.545341 -0.476577
0.519042 0.075041 -0.264647
-0.029607 0.037717 -0.250878
0.062242 -0.176517 0.124665
0.484734 0.088816 -0.278393
-0.301707 0.037560 0.301973
-0.163080 0.090888 0.129391
0.446292 0.152407 -0.228228
-0.295731 0.110751 -0.012627
0.448532 -0.059569 -0.111583
-0.068976 -0.034203 -0.139679
0.017180 0.023432 -0.235036
0.162920 -0.028517 -0.146237
0.011107 0.497897 -0.385782
-0.227845 -0.199360 0.463868
0.423305 0.002781 -0.272118
0.045807 0.271196 -0.358503
-0.441087 0.076425 0.004270
-0.367144 -0.182393 0.168767
0.398824 -0.147923 -0.116573
0.205806 0.158677 -0.212034
-0.113392 0.138791 0.101304
0.434321 -0.083955 -0.117248
0.013818 0.498370 -0.421566
-0.364404 0.139250 0.250863
-0.391756 -0.068311 0.045310
-0.172444 0.291510 -0.350749
-0.172832 -0.218994 0.415769
-0.073644 -0.018098 -0.150904
0.442751 0.052516 -0.081790
-0.012577 0.354344 -0.055344
-0.236879 0.174311 0.167314
-0.314305 -0.203941 0.286534
-0.385116 -0.056160 0.022540
-0.043329 0.114100 -0.298670
0.357449 0.146614 -0.180083
-0.020554 0.320440 -0.029405
-0.204522 -0.316528 0.363847
-0.031483 0.040254 0.238481
0.189973 -0.087831 0.074202
0.060677 -0.139052 0.147522
-0.306636 0.100299 0.068982
-0.238449 -0.265399 0.319725
-0.459770 -0.064053 0.079303
-0.401862 0.123883 0.276470
-0.308484 0.218461 -0.139968
-0.281377 0.220489 -0.294294
0.396748 0.081479 -0.081890
-0.006308 -0.120672 0.243865
-0.455290 -0.042375 0.070574
-0.274629 0.160623 -0.255111
0.006821 -0.175302 0.220569
-0.045692 -0.032656 0.271005
0.134829 0.082722 -0.249844
-0.364654 0.121434 -0.150684
-0.230393 0.014928 0.332191
-0.281303 0.012553 -0.093427
-0.181217 0.276108 -0.179022
0.309937 -0.174887 -0.066672
-0.442429 -0.015903 0.244776
-0.225081 0.277410 -0.316457
-0.149735 -0.221216 0.405693
-0.021724 0.363274 -0.081547
0.102720 -0.078387 -0.077555
-0.220392 0.220771 -0.185420
-0.023430 0.417058 -0.309559
-0.462210 -0.071838 0.084766
0.003431 0.343057 -0.138290
0.317145 -0.176193 0.022662
0.329948 0.047563 -0.263220
-0.125807 0.277551 -0.372450
0.508779 0.070849 -0.219367
-0.401323 -0.078010 0.330761
0.093507 -0.120099 0.120007
-0.015743 0.351650 -0.046902
-0.314520 -0.117470 0.393643
0.060899 0.292581 -0.064917
-0.418823 -0.150004 0.138748
-0.380678 -0.123837 0.370568
0.408037 -0.048710 -0.233697
-0.017458 0.026717 0.233981
0.282435 -0.224965 0.095329
-0.390358 -0.205097 0.407626
-0.277875 -0.102829 0.433678
0.354843 0.099976 -0.294876
0.158664 0.263664 -0.274369
-0.323916 0.015948 -0.053692
0.131218 -0.088878 -0.086046
0.344101 -0.113628 0.050643
-0.131804 0.269552 -0.315285
-0.277363 0.077437 -0.179494
-0.183392 0.280298 -0.167749
-0.186375 0.130115 -0.029885
0.065901 -0.134093 0.144778
0.210426 0.125664 -0.058525
-0.240737 0.190001 0.056299
-0.079182 -0.010457 -0.154493
0.088315 0.249295 -0.036858
0.255300 -0.038495 0.063153
-0.370442 0.093574 -0.122201
-0.411359 0.100152 0.102246
-0.043144 0.268234 -0.335816
-0.017375 0.361816 -0.094875
0.051448 -0.114365 0.147591
-0.201815 -0.193292 0.086548
-0.408570 -0.000879 0.296116
0.320166 0.052734 -0.257277
-0.099860 0.229353 0.058786
-0.347227 0.145932 0.281488
-0.429712 0.080988 0.149626
0.055688 0.348113 -0.339166
0.040976 0.443214 -0.317290
-0.168789 0.091339 0.155490
-0.283314 0.241056 0.026260
-0.293223 0.170705 -0.268894
-0.040502 0.361792 -0.280445
-0.180699 -0.109171 -0.001745
0.072887 0.397128 -0.283059
-0.224611 0.243373 0.147615
-0.208511 -0.236201 0.180269
-0.307873 -0.000503 0.359123
-0.199531 0.032270 0.313389
-0.381999 -0.209677 0.394765
-0.244348 -0.130175 0.405297
0.398815 0.162255 -0.204281
-0.142654 0.148247 0.056921
0.024639 -0.185392 0.217403
0.238503 -0.078648 -0.140940
0.070725 -0.076948 0.139188
-0.110218 0.413175 -0.099722
-0.333775 0.199391 0.109563
-0.245074 0.104137 0.199873
0.156979 0.177149 -0.287008
0.294090 -0.182759 0.119905
0.260117 0.118877 -0.099600
-0.137550 0.257404 0.075109
-0.306447 0.033006 -0.045017
-0.028837 0.313511 -0.305352
0.063671 0.102380 -0.275173
-0.301570 -0.182302 0.116162
-0.154576 0.301749 -0.134576
0.157954 0.103630 -0.019542
-0.080018 0.001049 -0.168332
-0.228033 0.263929 -0.366340
-0.326564 0.011970 0.057125
-0.079439 0.067166 -0.263817
-0.232704 -0.111828 0.011301
-0.263291 0.186589 0.028351
-0.034044 0.340190 -0.020052
-0.073706 0.502748 -0.362127
0.082134 0.153623 -0.319515
-0.334925 -0.189485 0.438379
0.417672 0.068601 -0.315527
0.003922 0.019766 -0.228806
0.456848 0.101012 -0.292910
-0.378833 -0.138070 0.102104
-0.193368 0.233672 0.067997
-0.386183 0.145559 -0.126308
-0.280242 -0.291436 0.458023
-0.258430 0.002731 0.336875
-0.000032 -0.171678 0.034965
-0.233582 0.285991 -0.096333
0.278314 -0.212880 0.096490
-0.467626 -0.087677 0.098917
-0.386520 0.003425 -0.042584
0.162210 0.195891 -0.121702
0.294848 -0.113353 -0.132149
-0.201967 0.022297 -0.031152
0.453838 -0.113262 -0.060035
-0.378585 -0.258780 0.305000
0.336085 0.130752 -0.161005
-0.429534 0.095862 0.025479
0.325371 -0.199209 0.082066
0.195025 0.072274 -0.182580
-0.139992 -0.302545 0.405165
-0.018527 0.254183 0.020503
-0.137389 0.076342 -0.246983
0.061472 0.302716 -0.142171
-0.254931 0.255096 -0.104831
0.057315 0.418721 -0.292023
-0.440791 -0.128428 0.117615
-0.073781 0.033469 -0.206163
-0.000508 0.352448 -0.073640
0.446695 -0.032137 -0.172893
0.345589 -0.154620 0.015726
-0.162214 0.215785 0.042380
-0.014335 0.144946 0.117757
-0.240146 0.219482 0.173081
-0.204087 0.191549 -0.318574
0.030370 -0.199317 0.194878
0.051620 -0.114106 -0.047051
0.002323 0.474387 -0.342476
0.207582 -0.034701 -0.163933
-0.184797 0.315050 0.060797
-0.479159 -0.073984 0.105501
-0.137144 0.113334 0.094835
-0.188176 -0.009974 0.336251
-0.163839 -0.069448 -0.049201
-0.323819 -0.271662 0.289671
0.191015 0.213705 -0.217303
-0.213037 0.091009 -0.005828
-0.275274 0.172339 -0.285495
-0.097615 -0.128584 -0.028140
0.101270 0.130518 0.055117
0.120308 -0.016584 0.090926
-0.279750 0.349807 0.063946
-0.251831 0.246936 -0.258818
0.010702 0.420869 -0.243889
0.049023 0.112207 0.124132
0.385866 0.166920 -0.268154
0.175158 -0.120168 0.076403
-0.305962 -0.302693 0.332976
-0.022073 0.301796 -0.012055
0.250903 0.102642 -0.165754
-0.227834 0.052423 0.307890
0.139011 0.028006 -0.194716
0.513654 0.085420 -0.258976
-0.115751 -0.223942 0.291486
-0.035631 0.517923 -0.485761
-0.299760 0.103544 -0.181952
-0.164107 -0.312776 0.382257
-0.185664 -0.110133 -0.002568
-0.180408 -0.087853 -0.013288
0.029001 -0.140782 -0.004757
-0.153742 -0.134180 0.018893
-0.364741 0.043307 -0.073295
0.001108 0.280828 0.002394
0.202306 0.126216 -0.063452
-0.019369 0.451297 -0.444474
-0.284797 -0.146907 0.058847
-0.380737 0.105343 0.345957
-0.350346 -0.155163 0.341009
-0.248038 0.247948 -0.023172
-0.248355 0.265275 -0.055831
0.321045 -0.170029 0.114576
0.150609 -0.079912 -0.097071
0.192861 0.187517 -0.188549
-0.363962 0.154766 -0.022221
0.429172 -0.000542 -0.044955
-0.218802 0.002015 0.337857
-0.364875 -0.013060 -0.040206
0.052126 0.048983 -0.257878
-0.082532 0.407072 -0.076677
0.186615 0.191251 -0.251835
-0.393189 0.089720 -0.093713
-0.040304 0.080053 0.199452
-0.317089 0.032620 -0.068126
-0.463735 -0.160279 0.270320
-0.147994 0.275649 -0.314374
-0.186596 -0.220016 0.316355
0.092228 0.188344 0.000018
-0.511492 -0.068242 0.250174
-0.229608 0.286000 -0.105860
-0.007462 0.505092 -0.364191
-0.017691 -0.050330 0.263179
0.136259 0.277237 -0.202477
0.166980 -0.102722 -0.088711
0.142172 0.092675 -0.253139
0.474822 0.012398 -0.208561
-0.281061 0.212826 -0.296425
-0.224713 0.002936 0.014568
-0.280904 -0.225704 0.322841
-0.071728 0.455627 -0.382618
0.344802 -0.006070 0.031951
-0.309524 0.060842 0.016062
-0.095919 0.473852 -0.390343
-0.330585 0.227400 0.104637
0.353915 -0.026943 -0.219034
-0.058713 0.368531 -0.029102
0.360196 0.075363 -0.298349
-0.216815 -0.206572 0.315324
0.465520 0.082624 -0.170641
0.484652 0.118947 -0.209461
0.107844 0.012054 -0.185524
-0.044691 0.372209 -0.267206
-0.320475 0.002911 0.021214
0.320452 0.152606 -0.262083
-0.404968 -0.027939 -0.009050
0.391584 0.001300 -0.259006
-0.101068 0.411957 -0.110216
-0.404124 0.106981 0.130430
0.383760 -0.162303 -0.024502
0.357648 0.101125 -0.300882
0.268442 0.103791 -0.082186
-0.169290 0.171062 -0.350937
0.282018 0.118598 -0.104069
-0.210663 0.185582 -0.340904
-0.181957 0.299589 -0.127267
0.310271 0.077129 -0.037132
-0.081420 -0.221322 0.188136
0.169135 -0.123253 -0.065621
0.110148 -0.101199 -0.035871
-0.044097 0.542769 -0.464655
-0.149198 0.374307 -0.133768
0.057281 -0.170002 0.180284
-0.301066 0.340892 0.030429
-0.080064 0.466783 -0.379743
0.130935 0.054122 -0.226277
-0.272496 -0.131233 0.033143
0.260220 -0.060946 -0.160201
-0.259708 -0.089565 -0.006398
-0.360874 0.056601 -0.078440
0.001144 0.322072 -0.320483
-0.219311 0.307645 -0.095648
0.319234 0.156248 -0.256386
-0.253093 0.260691 -0.067757
0.070858 0.155082 0.043992
-0.179486 0.251067 0.071053
0.432759 0.012532 -0.282506
0.046025 0.433203 -0.303658
-0.177656 -0.187189 0.392278
-0.184847 0.020152 -0.120801
-0.098220 0.549919 -0.482910
-0.411136 -0.033781 0.005998
0.257851 -0.045313 0.073536
-0.012830 0.161289 0.101528
-0.335373 0.140077 0.298862
0.122363 -0.001503 0.088330
-0.358557 -0.177488 0.335648
-0.199239 0.238697 -0.197051
0.326204 -0.031735 0.077109
0.067268 0.412108 -0.312821
0.300485 -0.200283 0.019585
0.170978 -0.067759 0.072044
-0.293585 0.012556 0.096477
-0.316237 0.246974 0.024522
-0.051396 -0.066241 -0.107182
-0.239121 0.333418 0.007676
-0.080666 -0.052559 -0.114898
-0.290523 0.092919 -0.029300
-0.498334 -0.047784 0.241745
-0.173769 -0.236773 0.132646
0.170108 0.177585 -0.110114
-0.116304 -0.020855 0.305112
-0.239558 -0.073488 -0.017449
0.295147 0.106897 -0.146973
0.037526 0.270702 -0.035747
-0.185374 0.289355 0.072738
-0.385952 -0.204182 0.380594
-0.422689 0.089124 0.244247
-0.267069 0.024257 -0.115235
0.034676 0.104842 -0.273218
0.166568 -0.152414 0.016830
-0.111210 0.042052 -0.207980
0.426259 0.095906 -0.318761
-0.141286 -0.228648 0.382172
0.024506 0.117905 0.117484
-0.019165 0.023175 -0.229946
-0.094204 0.517842 -0.372405
-0.116640 -0.276698 0.403508
-0.442110 -0.139306 0.343555
0.034840 -0.104831 0.189761
0.185079 -0.126885 -0.073103
-0.392644 -0.177961 0.222593
-0.067488 0.470453 -0.417459
-0.312729 0.098622 0.054606
0.079617 0.336848 -0.277484
-0.207939 -0.004971 -0.011513
-0.090079 0.550926 -0.380078
-0.253461 -0.319066 0.348873
0.070931 0.294365 -0.089205
-0.409893 -0.157887 0.254619
0.311974 0.112440 -0.140174
-0.047818 0.240539 0.050438
-0.224569 -0.165427 0.348617
-0.189635 0.244281 0.085959
-0.344765 -0.087503 0.023904
0.447173 0.045703 -0.087833
0.069819 0.389909 -0.343683
0.311763 0.140819 -0.257251
0.118517 0.128184 -0.288837
0.216329 -0.177850 0.074975
0.485818 0.071886 -0.298743
-0.261333 0.222870 0.181193
-0.029203 0.275853 -0.076487
-0.064653 -0.130559 0.293721
-0.046138 -0.103856 0.282256
-0.048292 -0.060310 0.281263
-0.350228 -0.066938 0.022470
0.006408 0.407159 -0.216211
-0.399213 -0.171431 0.275538
-0.004594 0.457738 -0.444216
-0.336439 -0.014986 0.018537
-0.123889 0.215882 -0.391987
0.138457 0.295319 -0.271698
-0.476377 -0.143993 0.285809
0.348218 -0.081198 -0.201455
-0.272261 0.329703 0.105360
0.527230 0.047483 -0.260654
-0.175686 0.289049 -0.365011
-0.311329 -0.149832 0.474300
0.190190 0.142476 -0.075557
0.394150 -0.064832 -0.168226
-0.002423 -0.119585 -0.057382
0.030066 0.320859 -0.138359
-0.113456 -0.144276 0.003822
-0.207437 0.051989 0.023449
0.120453 0.006695 -0.174276
-0.298970 0.228400 0.156056
-0.222198 0.238167 0.147440
-0.095408 -0.227538 0.163487
-0.195158 -0.286316 0.342009
-0.332760 -0.265136 0.286601
-0.377181 -0.189515 0.348264
-0.424507 0.069622 0.360842
-0.100044 0.234815 0.056429
0.218352 0.036767 -0.205395
-0.502487 -0.035584 0.155699
-0.241205 0.224118 -0.359053
0.300322 -0.090416 0.104514
0.371229 0.047956 -0.291861
-0.330328 -0.025716 0.237140
-0.228951 -0.321450 0.396868
-0.233214 0.247995 -0.151827
-0.111767 0.233430 0.057762
0.096723 -0.156414 0.088125
-0.031392 -0.043463 0.263361
-0.459474 -0.033139 0.234429
-0.244402 0.192058 0.025711
0.428194 0.130504 -0.171601
-0.169908 0.307360 -0.119004
0.224094 0.146196 -0.118066
-0.302403 -0.095170 0.348788
0.023977 0.277801 -0.013714
0.228976 0.064943 -0.188931
0.141282 0.168565 -0.076904
0.053497 0.306649 -0.077536
-0.362154 -0.096455 0.337757
0.234717 -0.164585 -0.058091
-0.110308 0.413690 -0.084802
-0.318305 0.074273 0.342918
-0.040596 0.066448 0.220832
0.138203 0.221640 -0.315541
-0.443627 0.064421 0.232789
-0.046374 0.377857 -0.262437
-0.316143 -0.038074 0.366852
-0.060688 -0.155051 0.278381
0.066646 0.257763 -0.029247
0.128938 0.303533 -0.279276
-0.216512 -0.247530 0.324709
-0.266933 -0.287452 0.459739
0.307875 0.006029 -0.225215
0.144539 0.288480 -0.270205
-0.309779 0.196417 0.008491
-0.134308 0.161147 -0.345186
-0.162962 0.093807 -0.252141
0.151495 -0.025321 0.062565
-0.241582 -0.150046 0.043362
0.075167 -0.068819 0.132265
-0.025653 0.525246 -0.371610
0.202735 -0.096789 -0.107601
-0.235166 0.296314 -0.048223
0.095026 0.301732 -0.326911
-0.175813 0.248914 -0.256318
0.442996 -0.063027 -0.121077
0.376409 0.172982 -0.241813
0.016092 0.477220 -0.427832
0.312795 0.093585 -0.218526
-0.047384 0.259907 0.035676
-0.430207 -0.051468 0.041678
-0.271853 0.281010 0.134389
-0.169664 -0.235008 0.235141
0.125776 0.081755 -0.252468
0.154196 0.005407 0.046343
-0.361390 -0.301636 0.323200
0.092072 0.181809 0.003739
0.036494 -0.139785 0.002723
-0.422792 0.088070 0.132290
0.453584 -0.012178 -0.244609
0.462851 -0.006066 -0.244889
-0.259591 0.106530 0.287547
-0.299948 0.069205 0.331427
0.052411 0.010975 0.182451
-0.175697 -0.229092 0.117628
-0.167757 0.245359 -0.403724
-0.414670 0.138706 -0.066718
-0.325516 0.062466 0.358639
0.035941 0.450461 -0.326110
-0.045282 0.193087 0.092617
0.189665 0.001884 -0.176554
0.323897 0.105208 -0.208668
-0.307275 -0.038899 0.006340
0.198201 0.021513 -0.189357
-0.148117 -0.062184 0.331696
-0.233402 -0.198833 0.473000
0.483597 0.013014 -0.223815
-0.391638 0.122114 0.322583
0.294693 0.063030 -0.212355
-0.292345 0.082985 0.326525
-0.175408 0.384006 -0.097212
0.136063 0.135574 0.008117
0.270050 -0.090821 0.109188
0.416690 0.148549 -0.178960
-0.309082 0.123659 -0.203337
-0.063435 -0.048596 0.290602
-0.248140 0.039400 0.052086
0.289583 -0.179703 -0.050882
0.168474 -0.120033 -0.052031
-0.087251 0.025953 -0.185099
-0.023381 -0.087303 0.265907
0.202172 0.092496 -0.029989
0.133453 0.132162 -0.280671
0.216576 0.009173 -0.197515
0.123421 0.033635 0.088796
-0.366246 -0.090792 0.034495
0.282246 0.095204 -0.073794
-0.217208 0.044922 -0.123398
-0.399612 0.153115 -0.009499
0.146150 0.130783 -0.055160
-0.191537 0.165882 -0.036805
-0.316575 -0.069195 0.350656
0.049453 0.332433 -0.327502
-0.038271 0.376945 -0.063523
-0.469318 -0.121396 0.135875
0.130143 -0.092217 0.095457
-0.363433 -0.194106 0.237279
0.140254 0.134018 -0.273750
0.231981 0.110005 -0.057886
0.154958 0.027089 -0.177220
-0.367528 0.067760 0.369384
0.030718 0.445199 -0.309296
-0.386871 -0.239378 0.314906
0.307768 -0.037709 -0.212057
-0.044156 -0.213317 0.143788
0.472308 0.038673 -0.304187
0.077521 0.311123 -0.166607
0.482846 0.123205 -0.212579
-0.267464 0.159853 -0.026743
-0.326543 0.159088 0.252399
0.135793 -0.039887 0.074917
-0.212081 0.350951 -0.065124
-0.170116 0.147325 0.018905
0.060470 0.237005 -0.011205
0.308662 -0.047452 0.086806
-0.387717 0.185169 -0.020007
-0.254471 0.108486 0.278591
-0.155168 -0.029693 -0.099323
0.000803 0.138978 0.113301
-0.112912 0.540568 -0.462156
-0.301299 0.158436 0.022497
0.083615 0.041497 0.132276
0.087235 0.073163 0.109891
0.267726 -0.229039 0.062862
-0.233123 0.263545 -0.132500
-0.006103 0.322878 -0.031986
0.091777 -0.089784 -0.049398
-0.349343 -0.258467 0.297124
-0.337878 -0.152887 0.325250
0.525631 0.042989 -0.261661
0.255710 0.040105 -0.199821
0.093950 0.014743 0.128710
-0.081634 -0.071977 -0.092798
-0.326305 0.229149 0.042712
-0.376267 -0.096062 0.047010
0.016726 0.030929 -0.246365
-0.290426 0.168507 0.004377
-0.273155 0.165753 -0.273575
-0.326171 -0.277249 0.422366
0.259669 -0.030895 -0.194111
-0.024697 -0.171686 0.238984
-0.011645 -0.200525 0.129888
-0.251290 -0.104283 0.001098
0.419962 0.008115 -0.049655
0.428838 0.109881 -0.122644
-0.149282 0.207761 -0.387462
-0.393974 -0.110464 0.362971
0.359640 0.169588 -0.239314
0.198916 0.148433 -0.115698
-0.366289 -0.144773 0.380399
-0.170147 0.038598 0.305760
-0.031763 0.342081 -0.286820
-0.326428 -0.026003 0.371492
-0.001697 0.325358 -0.034150
-0.081500 0.131213 -0.294735
-0.451582 -0.029287 0.240651
0.086561 -0.139246 0.124686
-0.419549 0.126368 -0.007608
-0.178288 0.108818 0.039647
-0.467194 0.018044 0.201059
-0.267051 0.265599 0.148929
-0.269334 0.156414 0.094746
0.310878 -0.181907 -0.049886
-0.385023 -0.208688 0.422900
-0.210230 -0.020744 -0.011039
0.121819 0.227110 -0.072300
-0.106202 -0.214540 0.285909
-0.417947 -0.077155 0.307305
-0.188309 0.181849 -0.343481
0.389764 -0.156555 -0.010689
-0.169566 0.119719 0.204451
0.215326 -0.049857 0.075733
0.465620 0.126248 -0.274000
-0.193959 -0.003067 -0.075275
0.008291 0.485505 -0.452749
0.204219 0.172126 -0.182715
-0.364339 -0.153052 0.400202
0.387329 0.119262 -0.111124
-0.118763 0.273543 -0.353746
-0.119024 -0.191548 0.061191
0.328774 -0.020619 0.067724
-0.451028 0.054640 0.175293
-0.031596 0.243515 -0.352721
-0.407446 0.139619 -0.085952
-0.125474 0.123154 0.098831
-0.300707 -0.101106 0.349681
-0.392815 -0.064951 0.324885
-0.073103 0.404103 -0.155481
0.000843 0.220628 0.036798
0.349452 -0.172509 -0.085457
-0.281185 -0.219265 0.477330
-0.425566 -0.012762 0.027574
-0.339275 0.217757 -0.106768
0.206602 -0.013939 0.062071
-0.283063 0.159475 0.067557
-0.062169 0.043039 -0.239925
-0.097759 0.525340 -0.478863
0.043513 0.317860 -0.129308
-0.217889 0.205350 0.107229
0.089800 0.058751 0.110831
-0.279169 0.012804 0.335140
-0.224222 0.019380 0.029827
-0.220254 -0.228274 0.154566
0.381973 -0.070436 -0.178678
0.337392 0.122980 -0.207987
-0.353557 -0.258817 0.389228
0.384306 -0.165827 -0.049459
-0.162958 0.403073 -0.088954
0.203135 0.168899 -0.168299
-0.314823 0.175703 0.216309
0.151074 0.046396 0.052506
-0.287163 -0.291779 0.454018
-0.295325 0.215479 0.016828
0.262325 0.097017 -0.172899
-0.089463 -0.077641 -0.080033
-0.174431 -0.002175 0.324717
-0.272581 0.353412 0.017207
-0.220517 -0.009314 0.038952
0.039242 -0.146151 0.026385
-0.154385 -0.225726 0.359310
0.451964 -0.020510 -0.218771
-0.368609 0.092623 -0.129070
-0.289074 -0.209516 0.288228
0.478536 0.051045 -0.306519
-0.180401 0.112998 -0.267692
-0.108248 -0.083369 0.320796
-0.156132 0.332694 0.055683
0.306523 -0.087288 0.094588
-0.409955 -0.045672 0.289427
-0.428603 -0.157170 0.386290
0.463516 -0.087510 -0.043309
0.084193 0.274717 -0.131989
-0.247624 -0.126402 0.402346
-0.008753 0.470474 -0.462371
-0.297387 0.216085 0.167840
-0.284593 0.165800 0.054334
0.322798 -0.132747 -0.125847
-0.115370 0.322636 -0.176288
-0.315423 -0.201536 0.175439
-0.188239 0.355191 0.024648
-0.032335 0.262362 0.027199
-0.226714 0.304815 -0.085126
0.241591 -0.203115 0.017658
0.073476 0.279550 -0.062759
0.118388 -0.130409 0.030374
-0.471577 -0.095375 0.286026
-0.131694 0.397338 -0.131307
-0.233355 0.097960 -0.010083
0.166392 0.188549 -0.120925
-0.168857 -0.225449 0.107291
-0.178235 0.286740 0.076710
-0.412119 -0.119144 0.092541
-0.257857 -0.108323 0.424076
-0.251986 0.128501 0.241135
-0.250037 0.350404 0.010192
-0.328039 -0.002391 0.026650
-0.350826 0.107702 -0.070142
0.283673 -0.031885 -0.195461
-0.054996 0.141623 0.139957
0.454829 -0.020172 -0.207524
-0.332080 -0.129844 0.433676
-0.176389 0.240537 0.062681
0.085953 -0.097145 0.106551
0.170436 0.097820 -0.018644
0.094954 0.285849 -0.151681
0.070025 -0.174580 0.121770
-0.312141 -0.290110 0.303615
-0.340542 -0.247749 0.419759
-0.012986 0.132213 -0.299763
-0.250620 0.360087 0.042530
0.076928 0.273429 -0.058132
-0.066018 0.535220 -0.481413
-0.376314 0.159565 -0.141165
-0.126738 0.182063 -0.369672
0.115382 -0.150864 0.080220
-0.274258 -0.325438 0.358346
0.085078 0.334287 -0.258881
-0.432833 -0.162257 0.334689
0.136551 0.045302 0.063754
-0.230852 0.271943 -0.348064
0.006275 0.015496 -0.224141
0.205091 -0.013527 -0.174698
-0.372867 0.166742 -0.049087
-0.150061 -0.158536 0.033794
-0.469703 -0.043694 0.247343
-0.473997 0.017536 0.160040
-0.033842 0.352112 -0.029125
-0.214503 0.048675 -0.012869
-0.344214 -0.260076 0.288340
0.152599 -0.015287 -0.153462
-0.258874 -0.072069 -0.013494
-0.170861 0.265706 -0.216151
-0.187472 -0.237330 0.198289
0.312469 0.141121 -0.249520
0.217689 0.027098 0.036715
0.480863 0.040138 -0.185127
-0.183786 0.119938 -0.279877
0.300514 -0.016100 -0.213545
-0.025262 0.403849 -0.192786
-0.138191 0.140238 -0.290769
-0.377236 -0.224913 0.308077
-0.180443 0.236247 0.059500
-0.226477 0.301497 -0.090470
0.486564 0.036820 -0.297193
0.099214 -0.121838 -0.008614
-0.125473 0.275776 -0.348200
-0.045128 -0.135822 -0.025767
-0.439035 0.070367 0.311178
-0.136355 0.337511 0.033266
-0.254018 0.165279 0.229578
-0.439656 -0.168674 0.235297
-0.326947 -0.255207 0.448334
0.034850 -0.109197 0.182954
0.439358 0.093924 -0.310909
0.092734 0.192716 -0.007533
0.365156 0.108116 -0.306158
-0.306536 0.169816 0.241317
0.460569 -0.010636 -0.235887
0.378001 0.122159 -0.111492
-0.343657 0.216322 -0.119868
-0.144008 0.171420 0.045459
-0.268923 0.294581 0.128269
0.315450 -0.130948 -0.124224
-0.156676 0.094578 0.123710
-0.111950 -0.134448 -0.011121
0.016486 0.066263 0.174404
0.088806 -0.129957 0.048859
-0.014975 0.318967 -0.031244
0.284673 -0.010266 0.049389
-0.058859 -0.138609 -0.024931
-0.290098 0.209864 0.183327
-0.314416 0.326827 0.018940
0.475243 0.064244 -0.301873
-0.179335 0.368187 -0.106524
-0.253278 0.247213 -0.126777
-0.298089 -0.212025 0.228268
-0.248102 0.121578 0.194438
-0.405773 0.104509 0.145465
0.355685 -0.026464 -0.228362
-0.425464 -0.170951 0.213938
-0.288852 0.233075 -0.216286
-0.204081 0.275370 -0.381929
-0.315397 -0.124512 0.457849
-0.173479 -0.234421 0.127537
-0.081221 0.486695 -0.446091
-0.250501 -0.146256 0.451795
0.268735 -0.215804 0.017519
0.080535 -0.138961 0.057231
-0.356171 -0.232845 0.395580
-0.039209 0.396295 -0.258552
-0.138682 0.404690 -0.043358
0.132193 0.075104 0.053792
-0.415061 0.127368 -0.077074
0.030692 -0.162510 0.199551
-0.082292 -0.164753 0.010916
0.202224 -0.032360 -0.164826
-0.233452 -0.261058 0.314730
-0.271979 0.106480 0.125525
-0.474209 -0.141989 0.191948
0.032290 -0.156200 0.186450
-0.303772 -0.191330 0.141306
0.056643 -0.158091 0.092553
0.298157 -0.166752 -0.091886
0.513487 0.071360 -0.225057
-0.241118 0.037552 0.317865
-0.082959 0.010345 0.287123
-0.338188 0.162621 0.210629
0.264036 -0.088317 0.108656
-0.294587 -0.299274 0.337411
-0.191719 -0.002074 0.333970
0.061769 0.366263 -0.346055
-0.089158 -0.227659 0.167951
-0.097329 0.264949 -0.353628
-0.138490 -0.145578 0.019782
-0.436044 -0.163747 0.313351
-0.352775 0.172480 0.013443
0.319344 0.125428 -0.280407
0.363476 -0.028477 0.035258
0.420745 -0.007872 -0.259429
0.387621 -0.097867 -0.160514
-0.038755 -0.115129 0.275956
-0.313254 0.193950 -0.247458
-0.010477 -0.102191 0.252051
-0.255722 0.064134 0.127999
-0.362934 -0.018702 0.376342
0.087566 0.218936 -0.344765
0.230094 -0.124358 0.106467
0.298030 -0.001206 0.035192
-0.310680 -0.301870 0.398619
-0.031876 -0.216932 0.267697
-0.400812 0.118000 0.063759
-0.095254 -0.027324 -0.129089
-0.280527 0.212651 0.010045
0.070582 0.234005 -0.353452
0.342224 0.129776 -0.203235
0.011605 0.463635 -0.329441
-0.297197 -0.115105 0.028031
-0.167500 0.161421 0.001813
-0.433826 0.077038 0.194408
-0.162352 0.397722 -0.034526
-0.028276 0.087525 0.184321
0.091068 0.128081 -0.292719
-0.322974 0.299389 0.055819
-0.278228 -0.205311 0.300984
-0.348403 -0.038031 0.033659
-0.445562 -0.126901 0.120284
-0.000179 -0.066103 0.253142
-0.022751 0.226535 0.045581
0.339889 -0.074717 0.058234
-0.188493 0.304022 0.064648
-0.278203 -0.039158 0.361443
-0.343155 -0.073699 0.019982
-0.042951 -0.036548 -0.156999
0.172883 -0.054544 -0.132066
0.321063 0.087454 -0.049255
0.031134 -0.137947 -0.008797
0.038892 -0.191683 0.171204
-0.225747 0.279491 -0.328239
-0.482067 -0.145070 0.215144
-0.012077 0.433447 -0.317859
0.021988 0.468988 -0.413423
-0.060066 -0.213667 0.232695
-0.107031 0.402892 -0.141089
0.098855 0.253537 -0.123190
-0.239382 -0.186530 0.470174
-0.366381 -0.085250 0.033534
-0.145837 -0.229519 0.110584
0.341411 0.005128 0.025950
-0.196825 0.117400 0.200475
0.030440 0.244099 -0.361921
0.434591 0.091583 -0.106103
0.211703 -0.025312 -0.171436
-0.148653 0.086110 -0.249147
-0.326009 -0.131816 0.362134
-0.244576 0.258328 -0.029444
0.028356 0.337144 -0.161314
0.217909 -0.096678 0.093790
-0.107330 0.140306 0.105973
-0.080341 0.480942 -0.403119
0.008566 0.258472 -0.355518
0.337011 0.038000 -0.265207
-0.063436 0.480853 -0.458708
-0.068063 -0.097507 0.294931
-0.065343 -0.012286 -0.162696
-0.357332 0.152809 0.065323
-0.090045 0.046406 -0.215264
-0.385014 0.100009 -0.121069
-0.420745 0.089198 0.097513
-0.379563 0.133065 0.281416
-0.401702 0.124281 0.289918
-0.310547 0.010877 0.022369
-0.324138 0.063047 0.046285
-0.292221 -0.029215 0.365624
-0.149189 -0.168929 0.038774
-0.192117 -0.237256 0.218305
-0.175624 0.195159 -0.370690
0.001630 0.246553 0.029197
0.210740 0.147105 -0.191244
-0.300042 0.161279 0.263012
-0.196286 0.083380 0.027237
-0.208324 0.179494 -0.070662
0.045022 0.338233 -0.183257
0.461285 0.143427 -0.261540
-0.010386 0.059955 -0.272743
0.058440 -0.131635 0.143534
-0.201649 -0.239378 0.213099
-0.134057 0.107656 0.179212
-0.335693 0.219703 -0.118334
0.046221 0.311934 -0.072890
0.314245 -0.178121 0.016285
-0.301535 -0.291760 0.318310
0.365990 -0.038081 0.039720
-0.209817 0.045529 -0.123462
0.316252 -0.072924 0.076278
-0.177541 0.382763 -0.008549
-0.119665 0.068425 -0.249518
-0.312756 0.281238 0.005445
-0.334155 -0.310256 0.354279
-0.395072 -0.230052 0.345004
-0.094492 0.180858 -0.358222
-0.324583 -0.184298 0.307727
-0.142897 -0.233872 0.117489
-0.334416 0.162666 -0.227948
0.068347 0.341400 -0.315674
-0.268652 0.218682 0.184742
0.215466 -0.112366 -0.093501
0.030763 -0.070944 -0.144156
0.134648 -0.083889 0.084826
0.022716 -0.096378 -0.107520
-0.205200 0.245229 -0.182095
-0.091838 0.070171 0.237422
0.017670 0.158609 0.077796
0.444538 0.098701 -0.139840
0.192205 0.064607 -0.177020
-0.145252 -0.022948 -0.114238
-0.035296 0.240715 -0.351971
0.341161 0.105488 -0.252707
0.215558 0.016998 0.039022
0.151696 0.036022 -0.193468
0.341645 0.051055 -0.014358
-0.317607 0.219452 -0.094097
-0.061059 -0.010583 0.285009
0.061621 0.170856 0.035516
-0.238656 -0.151221 0.437678
0.270240 -0.145347 -0.094999
-0.255285 0.106251 -0.238199
0.037613 -0.087795 0.194675
-0.129148 0.277621 -0.353327
-0.108335 -0.126040 -0.017119
-0.388903 -0.233891 0.318053
-0.201779 0.289781 -0.348828
-0.153362 0.371606 0.017372
-0.461222 -0.029168 0.216306
0.326784 -0.168699 0.100933
-0.370112 0.115115 -0.144048
0.030596 -0.093535 -0.112807
-0.093203 -0.220510 0.263448
0.314699 -0.108719 -0.152251
0.204431 -0.052335 -0.139056
0.422692 -0.055797 -0.182232
-0.188987 0.385497 -0.055415
-0.445554 -0.062528 0.263198
-0.431265 0.078866 0.206053
-0.312824 -0.006377 0.372825
-0.433176 0.085619 0.306597
0.055414 -0.025116 -0.198738
0.375937 -0.155698 -0.120272
0.347764 0.103422 -0.274080
-0.082284 -0.010835 -0.150857
-0.422446 0.022802 -0.041186
0.282945 0.006744 0.030746
-0.005557 0.477560 -0.467732
-0.227807 0.293209 -0.014865
0.227632 0.100877 -0.159928
-0.321810 0.054986 0.034271
0.190595 0.110212 -0.219522
0.071127 -0.031087 -0.188474
0.115701 -0.095591 -0.044812
-0.484822 0.001417 0.186610
0.123244 0.021811 0.091689
0.390853 0.127637 -0.122336
0.097337 -0.084664 0.083571
-0.229776 -0.289554 0.329859
0.135589 0.194865 -0.055452
-0.334810 -0.054340 0.015019
-0.057369 0.134919 -0.289778
0.404168 -0.129078 -0.141348
-0.026925 0.290805 -0.332264
0.041426 0.413941 -0.247938
-0.447039 0.038305 0.240776
-0.068547 -0.151714 -0.006043
-0.414287 0.098821 0.082093
-0.353194 0.166482 -0.015045
0.059878 0.147906 0.077066
-0.396241 -0.113480 0.366470
-0.185987 0.247095 -0.220269
-0.202262 0.119203 -0.035099
0.334000 0.123817 -0.112219
-0.037888 0.092866 0.185361
0.085243 -0.081823 -0.102771
0.054798 0.374371 -0.232954
0.109193 0.246062 -0.124204
0.093794 -0.013961 -0.189034
-0.406722 0.104776 0.126223
0.422852 0.119441 -0.166444
0.267531 -0.043806 -0.179989
-0.190685 0.086320 -0.233404
-0.457563 -0.069927 0.265039
-0.194104 0.257690 -0.185395
0.290199 -0.081873 0.108317
0.064532 0.154754 0.046777
-0.279028 -0.032505 -0.002989
-0.505263 -0.115078 0.270057
0.026058 0.197754 0.042635
0.281385 0.090148 -0.167839
0.106168 0.218953 -0.024330
0.218473 -0.013528 0.053731
-0.131833 -0.083518 0.329260
-0.300659 0.063244 -0.140269
-0.442523 -0.159201 0.247008
-0.291541 -0.217048 0.181820
0.009223 0.096672 0.152027
-0.257494 0.283065 0.005877
0.258429 0.059078 -0.189709
0.424206 -0.056733 -0.209863
-0.244196 0.161397 0.160255
0.063136 0.045906 -0.252044
-0.200302 0.088123 0.279223
-0.235256 -0.222081 0.255542
-0.256141 0.181362 0.053437
-0.194346 0.253122 -0.190092
0.360425 -0.141235 0.022748
-0.073357 -0.175841 0.282828
-0.317831 0.202496 -0.026245
-0.276260 0.033451 -0.045883
0.098336 0.261761 -0.081136
0.116626 0.021995 0.105714
-0.097670 -0.030470 0.293292
0.030502 0.426534 -0.389975
-0.144715 -0.120736 0.341971
-0.025203 0.455908 -0.451868
0.078012 -0.119076 0.123171
-0.323458 0.012600 0.376890
-0.188550 0.276656 -0.389393
-0.444115 0.064174 0.226165
-0.175241 0.074424 -0.211267
-0.173290 0.088708 0.143078
0.026017 0.206007 0.030172
-0.108374 -0.018132 0.295218
-0.131259 0.261985 -0.254284
0.016324 0.361328 -0.168802
-0.231133 0.190309 0.109532
0.438146 -0.009177 -0.255237
0.129935 0.077610 0.057138
-0.092326 -0.136488 -0.017656
-0.161011 0.222195 0.049627
-0.294841 0.223371 -0.150595
-0.241041 -0.313056 0.410453
0.063668 0.130213 -0.303654
-0.039890 0.253826 0.037030
-0.359750 0.007706 -0.061865
-0.039363 0.011436 0.259542
0.457875 -0.014751 -0.063918
0.393857 -0.017439 0.016080
-0.147308 -0.242171 0.194388
-0.204547 0.179331 -0.317743
0.039502 0.208743 -0.356926
0.029990 -0.119755 0.183378
-0.257661 -0.090003 0.354497
-0.186563 0.045926 0.306763
0.252709 -0.051373 0.075515
-0.279081 0.063816 0.318606
-0.111144 0.521896 -0.474775
-0.291754 0.046871 -0.127884
0.007450 0.099787 0.149118
-0.373467 0.052285 0.381514
0.035368 0.462977 -0.361731
0.423985 0.110222 -0.136565
-0.231157 0.165458 -0.296283
-0.092640 0.274887 0.059243
0.242985 -0.018677 -0.195062
0.014001 0.495640 -0.429949
0.323842 -0.182772 -0.046382
0.366420 0.068579 -0.049562
-0.301190 -0.317882 0.381406
-0.305581 0.200670 -0.258489
0.103675 0.318788 -0.267935
0.012407 -0.078768 0.231721
-0.019656 0.323872 -0.298844
0.194930 -0.027287 -0.167550
-0.313478 -0.000147 0.058571
0.019759 0.133689 -0.306920
-0.081483 0.129201 0.147978
-0.105000 0.367542 -0.003573
-0.026578 -0.187245 0.053866
-0.064325 -0.123805 -0.040825
-0.324859 -0.205513 0.196387
-0.307188 0.207572 -0.255835
-0.312150 0.227535 -0.201869
0.034798 -0.185641 0.207259
-0.031547 0.539748 -0.399459
0.260158 -0.151831 -0.081238
-0.430444 -0.033184 0.252469
-0.394602 0.114772 0.175139
-0.042489 -0.016888 0.262197
-0.124351 0.410228 -0.064873
-0.135760 0.358787 0.012229
0.382112 -0.157143 -0.010832
0.180917 0.045056 0.032257
0.442685 0.123802 -0.209893
0.122879 0.308531 -0.231651
0.376452 -0.162493 -0.107703
-0.207306 -0.032434 0.352710
-0.332513 0.163882 0.222603
-0.195804 0.244208 -0.257591
-0.051218 0.077199 0.218029
-0.142728 -0.313723 0.393089
-0.102408 0.368077 -0.174521
0.093912 -0.029268 0.126576
-0.437130 -0.166216 0.329826
-0.087053 0.082934 -0.276866
-0.030348 0.400345 -0.142125
-0.116641 0.271829 -0.345225
-0.422183 0.089381 0.076814
-0.031747 0.276722 -0.072886
-0.439481 0.069112 0.286763
0.200881 -0.033717 0.063410
-0.363418 0.146491 0.162478
-0.220082 0.154967 -0.302372
-0.209649 0.223808 -0.193617
-0.167784 0.260121 -0.233649
0.307190 -0.199322 0.048066
-0.456988 -0.058442 0.263623
0.087849 -0.014463 0.147084
-0.403456 -0.192202 0.377757
0.296289 -0.227620 0.076858
-0.084132 0.493240 -0.454437
0.028475 0.113358 0.120179
-0.327360 0.279066 0.033768
-0.168818 0.127390 0.026630
-0.107043 0.185357 0.076805
-0.204181 0.067275 0.026199
0.165739 0.267771 -0.249206
-0.279702 0.338353 0.089191
0.005379 0.403905 -0.208080
-0.106075 -0.119329 0.321555
-0.066589 0.568262 -0.439351
-0.205701 0.340633 0.014553
-0.191011 -0.023800 -0.047825
-0.257346 -0.228519 0.197728
0.038418 0.210048 0.015704
-0.273060 0.238752 0.024215
-0.351104 0.130923 -0.177541
0.481400 0.044895 -0.299715
-0.240180 0.277849 -0.092749
-0.010613 0.089270 0.174513
-0.343980 0.095231 -0.077927
-0.103275 0.021237 -0.173212
-0.044628 0.442210 -0.381526
0.082826 -0.073399 -0.122901
-0.145787 -0.021589 0.321158
0.010911 -0.161550 0.020454
-0.180883 -0.229429 0.254671
-0.247022 -0.152063 0.046044
-0.025312 0.279523 -0.080094
0.056422 0.420538 -0.297143
0.357297 -0.149695 0.014785
-0.023339 -0.041906 0.264044
0.383927 -0.091441 0.040210
-0.408184 0.119401 0.041700
-0.270442 0.115574 0.291358
-0.093692 0.287832 -0.272847
0.331752 -0.035481 -0.228207
-0.039895 -0.181061 0.258893
-0.342122 -0.198938 0.252304
-0.032019 0.441930 -0.425870
-0.522274 -0.076324 0.220318
0.064314 -0.059776 -0.141469
0.337599 0.076694 -0.036954
-0.167688 -0.216027 0.408089
-0.449326 0.055880 0.154933
-0.258943 0.036082 0.120588
-0.365262 -0.141789 0.358800
-0.273580 0.071275 -0.168582
-0.042252 0.295914 0.008299
-0.089683 0.278754 -0.287701
-0.320808 0.104682 -0.158330
-0.127907 -0.246627 0.394869
0.193304 0.058521 0.014644
-0.260886 0.027048 -0.054546
-0.071996 -0.223918 0.285952
-0.179812 -0.037955 -0.059169
-0.256954 0.152562 0.134557
-0.392151 -0.277817 0.349527
-0.368198 0.138818 0.242632
-0.424711 0.110524 0.013173
-0.215271 0.290425 0.085690
-0.190751 -0.142428 0.020690
-0.185873 0.157912 -0.071185
-0.086506 0.064406 -0.251570
-0.188598 0.157665 -0.035041
-0.183406 0.284963 0.074797
0.052892 -0.032885 0.193229
0.215186 -0.119928 0.096246
-0.256437 0.241592 -0.331003
0.024284 0.226714 0.014955
0.305277 -0.068429 0.101119
0.195053 0.195032 -0.206270
-0.165318 0.321012 0.063712
-0.325432 -0.040655 0.015828
-0.080126 -0.057378 -0.110711
-0.357706 0.185584 -0.181087
-0.194480 0.170679 -0.034814
-0.017735 0.434341 -0.333046
-0.354618 0.163338 -0.198818
-0.053884 0.050705 0.246735
-0.439771 0.082005 -0.045867
-0.119247 -0.194971 0.064722
0.378996 0.172323 -0.232875
-0.343305 -0.200003 0.441241
-0.092938 -0.188820 0.051989
-0.037760 0.437139 -0.395097
0.110806 -0.020259 -0.158241
0.076599 0.246590 -0.022511
0.009834 0.457709 -0.324127
-0.250691 -0.006467 0.047802
0.094630 0.264506 -0.075139
0.281261 -0.080520 -0.163151
0.273108 -0.217832 0.086708
-0.072340 0.325392 0.002254
0.147641 0.001082 0.052873
0.137488 0.190819 -0.064479
0.109333 0.258944 -0.137035
-0.093029 0.272184 -0.290472
-0.368553 0.200234 -0.096391
-0.156367 0.405216 -0.073986
-0.369700 0.105859 -0.082180
0.460570 -0.099684 -0.065515
-0.023078 0.370004 -0.330189
-0.301398 -0.050135 -0.001564
0.080284 0.118301 -0.288957
-0.424888 -0.151700 0.309471
-0.402577 -0.195127 0.391065
0.473807 0.025878 -0.191763
-0.030947 0.537986 -0.394054
-0.303525 0.119652 0.010560
0.225025 -0.108689 -0.109729
-0.164436 0.394013 -0.023765
0.329451 0.038901 -0.258453
0.422516 0.049751 -0.303158
0.212415 -0.188512 -0.001031
0.429987 -0.075685 -0.144399
0.255389 0.104244 -0.159669
-0.204675 0.080124 0.155263
-0.013949 0.537084 -0.403971
0.097347 0.324307 -0.258444
-0.444523 0.006981 0.065903
-0.362892 0.193933 -0.150827
-0.390378 0.123144 0.246656
-0.043705 0.286188 -0.323451
0.424682 -0.108804 0.009059
0.331775 -0.169040 0.064809
-0.369723 0.027920 0.387634
-0.297588 0.029317 -0.109783
0.111057 -0.052729 0.084063
0.137607 -0.135518 0.024235
-0.427892 -0.116196 0.094306
0.118722 -0.145042 0.045008
0.037181 0.027849 0.188359
-0.335479 -0.137010 0.415953
-0.371449 0.201608 -0.082542
-0.072055 0.194968 -0.332316
-0.402622 0.129417 -0.101068
-0.001427 0.465963 -0.449523
-0.048944 0.386017 -0.248613
-0.291600 0.009374 0.093217
-0.219815 0.169675 -0.081666
-0.124229 -0.122726 0.328517
0.430905 -0.039444 0.014621
0.172842 0.130975 -0.066813
-0.035440 0.403091 -0.152429
-0.244396 0.194528 0.017120
-0.102488 -0.323426 0.356244
0.042508 -0.122446 -0.034032
-0.340260 -0.174806 0.328463
-0.424351 -0.161669 0.354219
-0.023037 0.540622 -0.465001
-0.120653 -0.262753 0.401140
-0.235024 0.295683 0.106257
-0.258023 -0.248418 0.473873
-0.077393 0.176257 -0.322578
-0.337719 0.180584 0.016192
0.134100 -0.101328 -0.071978
-0.070633 -0.144686 0.290399
0.244459 -0.111359 0.117476
0.065065 -0.007255 -0.213656
-0.086491 0.190500 -0.347477
-0.130144 0.118576 0.099147
-0.453348 -0.015828 0.072026
-0.379758 -0.130596 0.089711
-0.035538 0.403812 -0.165171
-0.032552 0.280748 0.009418
-0.305197 -0.062137 0.000384
-0.197828 0.186897 -0.003996
-0.212935 0.079545 0.158097
-0.049137 0.444911 -0.411392
-0.007411 0.259724 0.015023
-0.343900 0.175407 -0.042554
-0.326310 -0.294938 0.308097
0.079787 0.391798 -0.304716
-0.246481 -0.141239 0.347004
0.258296 0.025421 0.020917
-0.364247 -0.034604 -0.007303
0.062944 0.372226 -0.347344
-0.433922 -0.005324 0.255198
-0.087286 0.404080 -0.148206
-0.371346 -0.148252 0.327205
0.476208 0.118102 -0.200044
0.517504 0.030239 -0.247380
-0.406832 0.134870 0.011779
-0.292672 0.175575 0.237389
-0.053416 -0.218481 0.145395
-0.249728 0.260778 -0.317007
-0.281396 -0.122227 0.459499
-0.404095 0.143318 -0.000869
-0.314950 0.012451 0.356329
-0.136875 -0.251397 0.411765
-0.345697 -0.144492 0.377781
-0.155691 -0.176478 0.043670
0.039283 0.232899 -0.001027
0.422828 -0.095472 -0.140513
0.025172 -0.101846 -0.100253
0.380585 -0.116362 -0.140007
-0.134601 0.233278 -0.398855
-0.049540 0.515245 -0.480933
-0.385104 -0.145054 0.113816
-0.127664 0.302430 -0.138942
-0.186389 -0.203600 0.428903
0.102926 0.124234 0.052522
-0.223342 -0.288000 0.444359
-0.029551 -0.191916 0.062861
-0.333760 0.188874 0.061942
-0.022920 0.199904 0.073124
-0.170729 0.207903 -0.385275
0.426887 0.169906 -0.250775
-0.498474 -0.044324 0.237779
0.188489 -0.092840 0.075817
-0.336079 -0.238420 0.441492
-0.333973 -0.027236 0.228016
-0.335122 0.039986 0.059548
0.302631 0.054237 -0.225127
-0.348581 0.159351 0.086545
-0.390181 -0.126560 0.091863
-0.222211 0.056234 -0.008853
-0.226032 -0.199257 0.471902
-0.265913 0.114141 -0.237277
-0.218233 -0.118059 0.017409
-0.107215 0.072397 0.244795
-0.269771 -0.221907 0.480103
-0.281250 -0.261818 0.316768
0.391474 -0.065201 -0.175775
0.373716 -0.085481 -0.160693
-0.235882 -0.152643 0.424268
-0.333456 0.093383 -0.150042
-0.269423 0.231035 -0.071142
-0.361966 0.017560 -0.068531
0.106295 0.280983 -0.158967
-0.278739 0.127463 -0.233321
-0.213640 0.108580 0.275013
-0.186739 0.267711 -0.184023
0.040483 0.411123 -0.243142
-0.096626 0.242410 0.056398
-0.212471 0.325020 0.009340
-0.375848 0.132577 0.104231
-0.060489 0.197976 -0.334591
-0.329276 0.269295 0.052646
-0.118695 -0.262078 0.395476
-0.250168 -0.052758 -0.016417
0.061684 0.150837 0.057111
-0.221779 0.132288 -0.044988
0.035222 0.453555 -0.330429
0.057349 0.416813 -0.356052
0.032032 0.169809 0.053432
-0.407534 -0.160972 0.409062
