0.205778 0.431608 -0.180295
-0.313854 -0.006957 -0.274484
-0.249158 0.275972 0.131589
0.071527 -0.032499 0.453623
0.112430 -0.064392 0.452123
-0.090008 0.313459 -0.437886
-0.155490 -0.381985 0.143404
0.205373 -0.274455 -0.010767
0.369130 0.258503 -0.158167
-0.287677 -0.020057 0.010186
-0.316689 -0.009335 -0.068058
-0.095967 0.396146 -0.147389
0.417837 0.058354 -0.180936
0.142273 0.053577 -0.499285
-0.245580 -0.136743 0.433226
-0.328448 0.129085 -0.268514
-0.123228 0.300853 0.123823
-0.127990 0.089659 -0.449316
-0.040205 0.224941 0.260519
0.272901 0.353177 -0.124188
0.125421 -0.181141 -0.441681
-0.217285 0.266042 -0.182972
-0.196854 -0.277084 -0.040487
-0.241303 -0.325799 0.059463
-0.237919 0.191193 -0.301425
-0.158921 -0.296826 -0.047184
0.359146 0.011398 0.061940
-0.120100 0.159820 -0.412594
0.386698 0.039149 -0.061446
-0.216529 -0.033855 -0.435496
0.159949 0.225878 0.204558
0.107195 0.382956 -0.056463
0.318360 -0.143299 -0.044088
0.098289 0.257021 0.177334
-0.351935 -0.045901 -0.090464
0.286715 0.271251 0.020944
-0.267522 -0.091449 -0.111821
0.180911 -0.297757 0.177577
-0.286240 -0.308896 0.298630
-0.329191 -0.036358 -0.035763
-0.192414 -0.175731 -0.240260
0.223369 0.090101 0.363736
0.408104 0.358063 -0.314161
-0.197941 -0.264977 0.027214
-0.020323 -0.030392 0.454487
0.125348 0.448987 -0.199252
-0.196849 -0.249978 0.391296
-0.076286 0.313378 -0.287336
-0.317811 -0.238999 0.351955
0.365323 -0.052237 -0.210222
-0.348054 -0.252385 0.197929
0.222336 0.000536 0.402059
0.405739 0.055134 -0.419825
0.266727 0.140418 -0.436060
-0.125085 -0.206471 -0.285769
0.165923 -0.094067 -0.435274
0.340817 -0.120619 0.103013
0.158450 -0.296132 -0.038346
-0.347833 -0.200822 0.298291
0.075123 0.453854 -0.174955
-0.195823 -0.359234 0.095145
0.314999 -0.122229 -0.300725
0.304254 -0.029110 0.336196
-0.013758 -0.370705 0.210883
0.277669 0.183006 0.131962
0.348306 -0.045163 -0.250622
0.108932 -0.159319 0.445138
0.255224 -0.000886 0.382881
0.326650 -0.039529 -0.411971
-0.199664 0.211696 0.308436
-0.301474 -0.312222 0.233628
0.444485 0.122130 -0.332157
0.207555 -0.086996 0.419853
-0.010109 0.475560 -0.353600
0.088899 0.039038 0.428981
-0.179050 0.391368 -0.087518
-0.189533 0.262823 -0.326958
0.097423 0.407019 -0.087009
-0.095012 -0.056465 -0.408078
0.343526 0.336106 -0.162370
-0.347242 -0.183046 0.237837
0.203908 0.181462 0.252938
0.014645 0.362640 -0.220419
-0.275267 -0.274751 0.340613
0.055174 -0.269667 -0.270841
0.264149 0.079805 0.307544
0.051786 0.321345 -0.405466
-0.321176 0.137950 0.187768
0.276949 -0.105117 -0.355316
0.286122 0.219437 0.036181
0.321648 0.094709 0.198560
0.380802 0.341442 -0.202462
-0.115554 -0.273970 -0.224949
-0.299410 0.061343 0.189298
-0.245741 0.257960 0.085136
-0.059010 -0.247159 -0.295404
0.170176 0.439419 -0.330105
0.240245 -0.241070 -0.035659
-0.241526 -0.092416 0.435964
0.102048 -0.315937 -0.059416
-0.093940 -0.371828 0.009104
-0.078567 0.123817 0.372911
0.238296 -0.206160 -0.128506
0.106168 -0.291989 0.319017
-0.007500 -0.031160 -0.429306
-0.136262 -0.020108 -0.438162
0.304386 -0.138853 -0.130059
-0.131676 -0.288694 -0.156567
-0.220001 0.181822 -0.342015
-0.116340 -0.367820 0.078637
-0.168259 0.043281 -0.455358
-0.296818 -0.248259 0.174561
-0.021477 -0.279516 -0.277286
0.198526 0.055546 -0.486581
-0.301813 0.169487 -0.268842
0.360533 0.245273 -0.086577
0.265522 -0.194196 -0.138150
0.146848 -0.093669 -0.438977
-0.018787 0.270965 0.162741
-0.234047 0.312971 -0.000614
0.010947 -0.361184 0.186741
0.364601 0.259098 -0.147849
0.390413 -0.025134 -0.110972
0.345270 -0.086086 -0.306491
0.213161 -0.005726 -0.509393
-0.344736 0.110994 -0.240725
0.137558 0.462021 -0.263782
0.024893 0.163742 0.342685
-0.371597 -0.022508 0.302454
0.080004 -0.298991 -0.199115
0.000467 -0.309485 -0.208794
-0.240664 -0.260731 0.367059
-0.203170 0.037237 0.406660
-0.328066 -0.104891 -0.047086
0.123515 -0.029729 0.443486
0.201312 -0.064230 -0.411018
-0.155102 0.178329 -0.385908
0.131968 0.310788 0.052279
0.065495 -0.319533 0.261687
-0.096671 -0.343754 -0.025446
0.290084 -0.175447 -0.075174
-0.124703 -0.339068 -0.061910
0.037539 -0.071445 0.462182
-0.164230 -0.166895 0.446926
0.208516 0.305983 -0.378528
-0.227693 0.336175 -0.026576
0.301164 -0.200093 0.029927
0.356070 0.307298 -0.165524
0.165095 0.318581 -0.382327
0.118717 0.242021 0.194843
-0.166280 -0.269826 0.380362
0.017477 0.292013 0.083574
-0.066074 -0.385872 0.189529
-0.082184 -0.153725 0.458529
0.179318 -0.305499 0.036181
0.025485 0.212175 0.285129
-0.287341 0.238500 -0.058324
-0.168305 0.114972 -0.438907
-0.352670 -0.290478 0.285955
-0.281601 -0.024141 -0.180913
-0.012811 0.000052 -0.474650
-0.360792 -0.244934 0.234921
0.433112 0.339009 -0.316889
0.085405 0.304052 0.065668
-0.354009 -0.104637 0.367720
0.161786 0.459898 -0.237756
0.070563 0.096015 -0.496614
0.027733 0.429644 -0.104022
-0.109695 0.351755 0.037145
-0.287760 0.049825 0.021284
-0.114126 0.253762 0.209387
-0.304207 -0.023258 -0.089113
0.223973 0.360123 -0.124010
-0.001740 -0.329404 -0.175191
-0.276411 0.212472 -0.079097
0.373090 0.209547 -0.047614
0.191889 -0.259172 -0.072491
-0.369285 -0.011853 0.259240
0.259944 0.327844 -0.358390
-0.122908 0.237630 -0.420641
-0.103016 -0.388367 0.171344
-0.174435 0.392524 -0.141363
-0.218558 0.238436 -0.332016
0.083653 0.386558 -0.072488
0.421721 0.314808 -0.329525
0.332463 0.225602 -0.011515
0.105182 -0.004023 -0.497154
-0.291956 0.193864 -0.177757
-0.286803 0.024379 0.008579
-0.158911 -0.291754 -0.100205
0.242879 -0.269370 0.132146
0.176798 -0.019813 -0.517689
0.419878 0.188668 -0.139620
0.157458 0.018834 0.422351
0.248762 0.263754 0.042640
-0.051231 0.469239 -0.300252
-0.357946 -0.237330 0.233245
0.206435 0.371351 -0.117799
-0.155296 0.419158 -0.130152
-0.140324 0.215410 -0.359597
0.262957 -0.181215 0.315742
0.269398 0.167935 0.173314
-0.016868 0.153976 0.350430
-0.045211 -0.375550 0.145127
-0.121252 -0.019797 0.441619
-0.318763 -0.067538 0.051781
0.266597 0.335754 -0.353643
-0.170833 -0.260041 0.388843
0.258714 0.011927 0.377187
0.194599 -0.235274 0.337594
-0.233086 -0.049103 -0.406683
-0.294759 0.056032 -0.040768
-0.247251 0.249854 -0.172531
-0.067792 -0.074560 -0.437293
0.357444 -0.009587 -0.365684
-0.013427 0.052396 0.419923
-0.145569 -0.311388 -0.050330
0.017730 -0.370978 0.073484
-0.118691 -0.225211 0.423206
0.218972 -0.135863 0.396044
0.170042 -0.240992 -0.184498
-0.016951 0.374288 -0.397927
0.158690 0.104483 0.370822
-0.277305 0.107781 -0.024331
-0.133064 0.174376 -0.395445
0.355348 -0.067025 0.106647
0.373206 0.266829 -0.175170
0.296713 -0.100574 -0.352393
0.263612 -0.014712 -0.483223
-0.038462 0.402373 -0.159702
0.230343 0.285335 0.032992
0.132263 -0.334071 0.024571
0.101163 0.071087 -0.500343
0.005420 -0.155843 -0.459664
-0.145361 0.296673 -0.202856
0.267073 -0.179762 -0.195817
0.404386 -0.019748 -0.139924
0.354555 0.265849 -0.086997
0.004974 0.314991 0.034911
0.258362 0.306874 -0.029166
0.260520 -0.217115 -0.050848
0.024512 0.269056 -0.432989
-0.065377 0.459243 -0.321025
-0.087337 0.035210 0.422482
-0.044793 -0.338433 -0.113931
-0.323804 0.083306 0.299748
-0.000815 0.266395 -0.439502
0.252522 0.454029 -0.276845
0.276887 -0.233890 0.131540
0.358443 0.300731 -0.348901
-0.254457 0.158930 0.297260
-0.027947 0.368018 -0.296647
0.198819 0.082351 0.382210
-0.266287 0.145513 -0.013406
-0.197261 0.069223 0.392685
-0.261398 -0.350696 0.206328
0.071220 -0.334159 -0.166747
0.379802 -0.038508 -0.215868
-0.278149 0.201725 -0.071548
0.008995 0.413624 -0.173681
-0.206100 0.189118 0.321433
-0.253063 -0.114167 -0.250054
0.266823 0.280255 0.016294
0.397908 0.131822 -0.042673
-0.078841 0.089039 0.395894
0.208924 0.325665 -0.052545
0.275773 0.042271 -0.475479
0.100250 -0.077410 0.456395
0.398725 0.179692 -0.042590
-0.093531 0.153483 -0.436985
0.133108 -0.180734 -0.433028
-0.190901 -0.252565 -0.052443
0.363919 0.038232 -0.001531
0.395447 0.132142 -0.049712
-0.156992 -0.193628 0.436507
-0.091811 0.117790 0.375380
0.263868 -0.193584 -0.144296
0.007391 0.488391 -0.320765
-0.222988 0.175788 -0.383165
0.039576 0.259683 -0.433877
0.324119 0.405123 -0.312170
-0.305236 -0.164730 0.188276
0.057378 0.446819 -0.173091
0.193823 -0.221074 -0.162959
0.369038 0.091164 0.108137
0.288276 0.150081 -0.427360
0.090886 -0.339147 0.165298
-0.187593 0.350233 -0.127015
0.360282 -0.004657 0.065716
-0.212705 0.329196 0.069194
-0.087329 0.002247 -0.442120
-0.217874 -0.150113 -0.208254
0.016291 -0.314696 0.314637
-0.012427 0.415177 -0.081474
-0.190147 -0.360664 0.069962
-0.117917 -0.327376 -0.129918
0.160471 -0.325651 0.118441
-0.272826 0.016231 -0.339887
-0.011668 0.369112 -0.398971
-0.112318 0.290912 -0.218692
-0.284896 0.191797 -0.003462
-0.330729 -0.075887 0.184412
0.066028 -0.030429 -0.445964
0.274639 -0.021024 -0.433112
-0.258053 -0.007575 -0.430406
-0.182643 -0.111550 -0.315524
-0.268325 -0.221730 0.080947
-0.320671 0.143538 0.111763
-0.065729 -0.336625 -0.041385
-0.319639 0.124574 0.271335
0.440670 0.144106 -0.351901
-0.003674 0.490032 -0.333650
0.029705 -0.349117 0.196337
0.338330 -0.079505 0.240198
0.005186 0.283390 0.112118
-0.362491 -0.067614 0.321947
0.301146 -0.188121 -0.000856
-0.135329 -0.296929 0.354927
0.234475 0.184447 0.213281
0.098932 0.098655 0.389795
-0.270899 0.128535 0.327886
-0.061699 -0.041959 0.454420
0.174301 -0.022488 0.426363
-0.163350 0.105835 0.374700
-0.247034 0.190404 0.257869
0.093947 0.327679 0.025717
0.171920 -0.309659 0.040295
0.099471 0.452963 -0.219163
-0.337608 -0.044436 0.212633
0.315804 0.128568 0.148359
0.119887 -0.273756 -0.185868
-0.001698 -0.033407 0.455914
0.007756 0.003917 -0.490504
-0.215377 -0.196863 -0.013522
-0.030784 0.365253 -0.017172
0.354749 0.331112 -0.186613
0.272780 -0.012866 -0.479379
0.139231 -0.246426 0.367899
0.235318 -0.258774 0.186409
-0.014579 0.401030 -0.063313
-0.262115 0.160872 -0.007495
0.310539 0.120429 -0.435213
0.115587 -0.006722 0.440108
-0.133460 0.316708 0.097093
0.423211 0.019929 -0.270163
0.231329 -0.238971 -0.056994
0.021533 -0.364874 0.001663
0.129563 0.463331 -0.244822
0.231807 0.327852 -0.364365
-0.370857 -0.049962 0.212223
0.009060 0.304275 0.055598
0.175478 -0.272483 0.289411
-0.333960 0.079715 0.148835
-0.052018 -0.352467 0.016089
-0.123694 0.295169 -0.209713
-0.296119 0.036301 0.091065
0.087058 -0.274720 0.358740
-0.137253 0.080523 -0.452580
0.040325 -0.353474 0.170820
-0.243694 -0.115150 -0.275890
0.341873 -0.109029 -0.179332
-0.021147 0.340036 -0.215823
0.189745 -0.224264 -0.164684
-0.226829 0.210500 0.282468
-0.061875 0.322071 -0.276121
-0.166522 0.367906 -0.151427
-0.108174 0.081743 0.397200
0.102099 -0.327038 -0.028759
-0.338406 -0.052758 0.151915
0.275673 0.379539 -0.149097
0.109246 0.464143 -0.209778
0.387472 -0.044698 -0.147475
0.077198 -0.210953 -0.416800
0.181250 0.251844 -0.407161
-0.328251 -0.021265 -0.067679
0.328975 -0.151067 0.103025
-0.284189 0.093064 -0.065749
-0.085761 0.040682 0.420071
-0.296397 -0.153536 0.410114
-0.046465 -0.043780 -0.425462
-0.182357 -0.067982 -0.416679
0.260660 -0.255031 0.130018
0.342216 0.117813 0.117517
-0.240649 0.293813 0.031376
0.138101 -0.156351 0.436406
-0.281854 -0.114747 -0.023200
-0.115545 -0.000845 0.435024
-0.300541 0.033905 0.094773
0.107950 -0.147150 0.449672
-0.069916 -0.254162 -0.290187
-0.346110 -0.285719 0.289383
0.321547 -0.009984 -0.467163
0.038427 -0.302486 0.332468
-0.189605 -0.199590 -0.068602
-0.101953 0.305266 -0.199316
0.322110 -0.027334 0.310677
-0.003959 -0.130876 0.462531
-0.150107 -0.342436 -0.044710
-0.281837 -0.023624 -0.358019
-0.317756 -0.246565 0.188624
0.177213 0.192651 0.248302
-0.273763 -0.315560 0.217785
0.185608 0.307752 -0.382632
0.439073 0.140304 -0.331481
0.113975 -0.020328 -0.447292
-0.173426 0.366191 -0.149983
0.142085 -0.226075 -0.267472
0.106285 -0.133076 -0.464667
0.379770 0.236093 -0.152275
-0.263889 -0.320929 0.213991
0.302049 -0.128728 -0.300004
0.300809 -0.026667 0.340527
-0.118996 -0.248128 -0.258939
0.345814 -0.107833 0.023192
-0.035883 -0.016283 -0.438815
-0.190256 -0.310984 0.323356
0.057766 -0.359010 0.014103
-0.339631 0.032159 -0.280516
-0.255747 -0.064614 0.427561
0.270650 0.156907 0.192036
-0.042509 0.247512 0.223662
-0.157621 -0.199631 -0.246498
-0.035108 -0.370948 0.203568
-0.043916 0.317003 -0.426971
0.135434 -0.052454 0.443956
-0.354867 -0.105381 -0.063122
-0.040647 0.226812 -0.465057
-0.281074 0.226383 0.045266
0.300913 -0.136197 0.295140
0.293948 0.242281 -0.387286
-0.307507 -0.202756 0.381299
0.160431 0.260532 0.124621
0.015801 -0.044189 0.458672
-0.017972 -0.047750 0.458392
0.093762 0.060946 0.418384
-0.111650 0.011071 -0.451498
-0.229655 0.249231 0.182016
-0.184226 -0.205294 -0.039609
-0.042744 0.355907 -0.179491
0.278026 0.251603 -0.386726
0.012906 0.195823 0.309037
-0.295505 0.029634 -0.170083
-0.200150 -0.024687 0.430089
-0.224898 -0.350626 0.271403
0.407743 0.262291 -0.209916
0.274633 0.172775 -0.420637
0.363368 0.232786 -0.071480
0.144792 0.433554 -0.174825
-0.059798 -0.033853 0.452451
0.191420 -0.256975 -0.084753
-0.271153 0.053099 -0.333422
-0.232378 0.299064 -0.120239
0.151303 -0.310994 -0.004319
-0.296796 -0.196912 0.092619
0.438159 0.182816 -0.217740
-0.203586 -0.280355 0.039346
0.428068 0.144090 -0.399131
-0.107925 0.087027 -0.450545
0.298633 0.115370 0.210731
0.093919 -0.273861 -0.245553
0.130763 -0.209500 0.404128
0.222017 -0.018653 -0.451943
0.166903 0.138392 0.326291
-0.223419 -0.350430 0.109107
-0.223752 -0.161313 -0.045455
0.021000 0.318163 0.029023
-0.248120 -0.116575 -0.205598
0.110548 0.497914 -0.315484
0.098903 0.250914 0.190902
0.297899 -0.169793 0.243250
-0.096022 -0.385162 0.144413
-0.021713 0.020782 -0.498248
0.261571 0.325475 -0.062086
-0.176605 0.145441 0.348728
0.003962 0.198881 0.305942
-0.077292 0.298866 0.101542
0.225783 -0.150201 -0.411217
-0.207601 -0.163037 0.438468
-0.373590 -0.017746 0.205959
0.074431 -0.257098 -0.326936
0.123750 -0.083707 0.451115
0.225118 -0.170203 -0.317998
-0.385630 -0.160877 0.328873
-0.085068 -0.315862 0.323713
0.352119 0.326807 -0.142323
-0.042667 0.410339 -0.151919
0.273336 0.050955 0.331681
0.014826 0.485873 -0.315231
0.229941 0.442156 -0.316592
0.039616 0.007263 -0.509774
0.068124 -0.213755 -0.403193
0.441019 0.205407 -0.206858
0.115835 0.255071 0.159493
-0.221190 -0.306642 0.022292
0.001297 -0.129256 -0.455818
0.323426 -0.080854 -0.360271
-0.043143 0.467763 -0.364014
0.258137 -0.256474 0.134529
0.158785 0.263841 -0.406872
0.208055 -0.201801 -0.227758
0.383908 0.225239 -0.107500
-0.336412 0.077020 -0.310967
-0.239008 -0.131815 -0.197554
-0.047897 0.416647 -0.386701
-0.127579 0.149002 0.346901
-0.261608 -0.010023 -0.409530
-0.271056 0.253345 0.056454
0.352613 0.055472 0.069526
0.151737 -0.283578 0.290439
0.362587 0.164553 0.048077
-0.019886 0.359036 -0.404911
0.371477 0.192865 -0.013940
-0.303636 -0.066248 -0.094384
-0.264175 0.066448 0.375439
0.443816 0.208931 -0.337505
-0.169951 -0.281186 -0.107008
-0.083301 0.355599 0.013134
0.045695 0.477328 -0.281402
-0.261031 0.158053 0.000247
-0.281587 0.054241 -0.325783
0.089167 -0.189601 0.433308
0.257563 -0.248642 0.157944
-0.337411 -0.114814 0.016140
0.435334 0.177013 -0.277706
0.091385 -0.241822 0.392703
0.097178 -0.247777 0.385187
0.099816 0.234139 0.225116
-0.263349 -0.109783 -0.136686
0.282514 0.128836 0.219000
0.141364 -0.269720 0.336412
0.352199 0.245215 -0.056184
-0.084517 0.296177 -0.233026
0.311725 0.238977 -0.384911
-0.006035 -0.315456 0.317034
-0.039569 0.087104 0.398140
0.068741 0.289438 0.086861
-0.082770 0.376703 -0.034280
0.106943 0.375767 -0.036903
-0.057362 -0.177748 -0.357526
0.362956 0.000492 -0.373703
0.013739 -0.310051 0.324873
-0.345438 -0.068083 0.111664
-0.380709 -0.078364 0.286753
-0.305104 -0.060107 -0.302492
-0.156811 -0.212489 -0.078633
-0.272332 0.185714 -0.055296
0.298532 -0.176476 0.224820
0.225315 -0.280220 0.052101
0.008964 -0.107305 0.463842
0.379916 0.335033 -0.202200
-0.126710 0.309364 -0.426981
0.060610 0.427655 -0.131325
-0.264585 0.109854 -0.395456
-0.106211 0.404031 -0.142579
-0.352401 0.054978 -0.235940
0.253769 -0.125362 -0.386355
-0.207410 0.158592 -0.430996
-0.030325 0.408587 -0.081301
0.122811 -0.314305 0.217305
-0.263350 0.236512 -0.177524
0.460575 0.275896 -0.295339
0.049277 -0.310369 0.310200
-0.218040 -0.241726 0.031851
-0.343240 -0.032176 -0.055591
-0.029999 -0.261692 -0.311802
0.411225 0.281634 -0.222665
-0.234735 -0.094749 0.438134
0.291899 -0.062931 0.348279
0.058361 -0.020448 -0.461609
-0.061314 -0.234071 -0.316037
0.445976 0.238312 -0.346869
0.422546 0.208533 -0.165198
0.344365 0.377612 -0.189652
-0.009687 0.395127 -0.387588
0.050207 0.438925 -0.188339
-0.036298 0.407385 -0.156120
0.332738 0.214222 -0.390889
-0.075495 -0.257963 -0.286317
-0.121803 0.302874 -0.198087
-0.102144 -0.139986 0.461179
0.055893 -0.266918 -0.276071
0.314141 -0.155887 0.185230
0.132639 -0.223893 -0.304828
-0.227164 0.279826 -0.259843
-0.020957 0.315553 -0.422873
0.251562 0.315828 -0.365236
-0.380775 -0.179565 0.332070
0.230770 0.419716 -0.175684
-0.240588 -0.133029 -0.190294
-0.124889 0.229794 -0.474510
-0.043377 -0.039068 -0.424676
0.075991 0.045205 0.427747
0.204210 -0.292179 0.056108
-0.253683 -0.089911 -0.176377
-0.371710 -0.125170 0.312679
-0.124182 -0.265894 -0.180584
0.353469 -0.062946 -0.161337
0.149116 -0.269461 0.330290
0.250525 0.185003 0.178365
-0.148090 -0.122799 -0.346239
0.093598 0.242483 0.213638
-0.004822 0.326185 -0.415238
-0.094765 -0.038454 -0.421183
-0.174716 0.308231 0.136633
0.382178 0.355573 -0.201942
-0.296697 0.196811 0.100979
0.360029 -0.016641 0.066432
-0.272362 0.225548 -0.183547
-0.232375 -0.248820 0.380994
-0.203778 0.172454 0.337690
-0.112432 0.112714 -0.434884
-0.101792 0.241153 0.239690
-0.036915 0.238802 0.235186
-0.101990 0.293092 -0.340534
0.373933 0.237274 -0.139558
-0.091670 0.030807 0.424025
0.002211 -0.283705 0.366592
-0.121731 -0.163879 -0.340034
0.305448 0.027422 0.306155
0.005224 -0.364594 0.181012
-0.055665 -0.110834 -0.429939
-0.194102 -0.161288 0.442525
-0.258794 -0.228577 0.128215
0.212443 -0.229552 0.324850
0.364214 0.048987 -0.454064
0.238527 -0.013976 -0.429414
-0.242536 -0.038409 -0.423242
0.165557 -0.232430 -0.238630
0.279747 0.370912 -0.138871
-0.228986 0.040621 -0.401739
-0.375917 -0.202406 0.271456
-0.282963 0.244531 -0.042390
-0.286664 0.223725 -0.034471
-0.357350 -0.076235 0.240676
-0.085648 0.157896 0.341291
-0.106808 -0.336549 0.287094
-0.164889 -0.168568 -0.304832
0.268583 -0.196074 -0.122029
-0.140998 -0.364669 0.227198
-0.130972 -0.259377 -0.224206
0.315373 0.314588 -0.352200
0.224964 0.266470 0.073654
-0.261128 0.242416 -0.242822
0.448511 0.074631 -0.298777
0.145810 -0.255022 -0.180332
0.276741 -0.159728 -0.242135
0.172581 0.312085 0.038100
0.329240 0.175001 0.040266
-0.276328 0.111160 -0.029612
-0.015083 -0.098714 0.464024
0.024872 -0.354582 -0.051538
0.239172 0.317592 -0.060390
0.016494 0.297805 0.068471
0.376672 0.225498 -0.088915
0.420637 0.135036 -0.405564
0.262605 0.441481 -0.309955
-0.076327 0.303610 -0.242805
-0.053559 -0.329240 -0.187762
-0.297030 -0.053561 0.047207
0.204056 0.487328 -0.285424
-0.000594 0.131571 -0.496979
0.321266 -0.136820 0.188767
-0.261343 -0.066322 -0.158346
-0.233735 0.261306 -0.155018
-0.287365 0.078985 -0.063403
-0.004151 -0.110374 -0.419514
0.108282 0.013453 0.435473
0.125520 -0.128708 -0.454597
0.172756 0.190870 0.252955
-0.091761 0.454419 -0.380172
0.240817 0.261055 0.067966
0.229984 0.209049 0.173249
-0.062079 -0.179325 -0.309089
0.354088 -0.069248 0.141043
-0.054372 0.030776 0.427811
0.407865 -0.001720 -0.118101
0.398534 0.086708 -0.150403
0.150300 -0.021351 -0.430110
0.367124 -0.043284 -0.106457
0.009581 -0.117068 -0.453699
0.052727 -0.073123 0.461783
0.413924 0.107331 -0.246970
0.042528 -0.249452 0.397660
0.113038 0.052840 -0.505532
-0.041584 -0.213259 0.430925
0.047617 -0.206280 -0.399266
-0.108352 0.172087 0.326972
-0.355183 -0.232968 0.234854
-0.361602 -0.151516 0.308888
0.249112 0.100401 -0.456658
-0.241386 0.025224 -0.420010
0.071343 0.227754 -0.440837
0.289219 0.398779 -0.169771
0.108906 -0.252787 -0.259844
0.084716 -0.187229 0.435656
-0.194562 -0.173278 -0.270427
0.379693 0.082531 0.058386
0.337330 -0.109249 -0.015636
-0.166734 -0.182181 -0.213987
0.370280 0.185091 0.002238
-0.069230 0.138912 0.362057
-0.041364 0.213990 0.279806
-0.184827 0.147361 0.348796
0.056994 0.489137 -0.333198
0.380286 -0.013316 -0.297574
0.454943 0.259195 -0.316585
0.038609 -0.366963 0.112021
0.305020 -0.170758 -0.023638
0.139235 0.423692 -0.342849
0.182532 0.174042 0.274447
-0.244429 -0.127674 -0.194168
0.036352 0.435762 -0.155537
-0.232989 0.130506 -0.418475
-0.036238 0.163445 0.339249
-0.112367 -0.214185 0.431079
-0.292308 -0.253157 0.161219
0.038777 0.394691 -0.068064
0.234354 -0.099714 0.399333
-0.205999 0.344557 -0.009255
0.352935 0.058109 0.062202
0.117888 0.461907 -0.262585
-0.262968 -0.104283 -0.082845
-0.261211 0.178616 -0.320780
-0.176515 -0.094509 0.452283
0.009787 0.466444 -0.266941
-0.209514 0.128269 0.357217
-0.137081 0.348282 -0.157557
0.375332 -0.053064 -0.154452
-0.271118 -0.305812 0.167707
-0.048900 0.250061 0.220236
-0.279434 0.051088 0.063466
0.107528 0.165081 -0.459546
-0.303934 0.163403 -0.358009
0.156783 -0.284217 0.278130
0.001583 0.260889 0.195065
0.019699 -0.354026 -0.045464
0.412280 0.049409 -0.158790
-0.172088 -0.377821 0.041550
-0.374796 -0.175832 0.244128
0.240009 0.247588 -0.396485
0.127695 0.319291 0.046432
-0.378201 -0.034246 0.217008
-0.286816 0.218021 -0.025848
-0.064992 0.090828 -0.527989
-0.144512 -0.276861 -0.134322
-0.317169 0.030756 0.158306
0.406536 0.335041 -0.225712
-0.313722 -0.126900 0.021771
-0.040460 0.436078 -0.295638
-0.178330 0.256884 0.205283
0.122434 -0.317505 -0.046455
-0.262034 0.218873 -0.272239
0.380301 0.099682 -0.090008
-0.295817 0.154545 0.247248
-0.125841 0.240590 -0.363039
-0.086317 -0.321439 0.313927
0.367502 -0.044624 -0.115489
-0.091828 -0.279648 -0.225802
-0.060355 0.134748 0.366644
-0.054821 -0.289296 -0.251225
-0.145451 0.307046 -0.451154
0.446523 0.106630 -0.351328
-0.040000 -0.274080 0.382151
0.340029 -0.109345 -0.266847
-0.045049 0.472536 -0.350881
0.319626 0.222809 -0.390051
-0.370133 -0.011628 0.251793
-0.259947 -0.338172 0.208647
-0.369786 -0.071840 0.270019
-0.011086 0.118696 -0.504676
-0.010816 -0.282796 -0.236216
0.371599 -0.040011 -0.116411
-0.078709 -0.248887 0.407806
0.359348 -0.040254 0.088856
-0.370740 -0.038782 0.194479
0.131215 -0.258024 -0.194584
-0.371249 -0.013915 0.219518
-0.196364 -0.178716 -0.117723
0.165399 0.406913 -0.344789
-0.075323 0.130909 0.367761
0.182144 -0.129825 0.424982
-0.053042 -0.176999 -0.379483
0.050549 0.395489 -0.221522
0.130870 -0.343788 0.089361
0.320421 0.236850 0.003746
0.385498 0.007075 -0.057503
-0.142760 0.097199 -0.443087
0.425050 0.128077 -0.249870
-0.199684 0.169776 0.340559
-0.175483 -0.384449 0.079021
0.085594 -0.352560 0.076032
0.402687 0.197179 -0.383244
-0.195938 0.015417 0.416557
0.217098 0.354698 -0.116740
-0.254551 0.018748 -0.381590
0.189613 0.443791 -0.210797
-0.230855 -0.063683 -0.338972
-0.015205 0.089176 0.396653
-0.354914 -0.080752 0.004981
-0.126392 -0.012457 -0.442743
-0.125627 -0.212430 -0.248056
0.213892 0.087610 0.371385
-0.235963 -0.065034 -0.353125
0.295079 -0.106457 0.326867
-0.054839 0.466811 -0.305083
0.030662 0.278288 0.130153
-0.272403 0.222955 -0.065681
-0.076896 0.130362 -0.501473
-0.168198 0.395884 -0.140917
-0.341347 -0.089255 0.059996
-0.210291 0.328582 0.046600
0.350549 0.328262 -0.338959
-0.175345 -0.238125 -0.045887
0.366106 -0.004635 -0.340098
-0.081563 -0.320041 0.315900
-0.202137 -0.351991 0.246059
0.121656 0.154820 -0.460793
-0.289303 0.050402 -0.135453
-0.125145 0.272621 -0.463211
0.224987 0.106595 0.344112
-0.004553 -0.147077 -0.460514
0.135449 0.247721 -0.418664
0.276058 0.398466 -0.172824
-0.299668 0.070869 0.099297
-0.034551 0.405402 -0.079669
0.068215 -0.331890 0.219058
0.156241 -0.325990 0.130762
-0.039456 -0.383351 0.087212
-0.178906 -0.193608 -0.172802
-0.183791 -0.147542 -0.298311
-0.164356 0.215726 -0.347447
0.401667 0.351143 -0.219830
0.406802 0.281093 -0.219633
0.159329 0.150351 -0.454742
0.192364 0.515027 -0.293443
-0.008312 -0.344617 -0.066153
-0.281863 0.109634 -0.395052
-0.046055 -0.001773 0.443115
0.021682 -0.326028 0.278722
-0.317864 0.043490 -0.098068
0.281018 0.346751 -0.110880
-0.247056 0.270646 -0.095732
-0.305128 -0.006035 -0.041168
-0.329811 -0.078797 0.199125
-0.076791 0.234017 -0.469662
-0.246548 0.276461 -0.092000
-0.219190 0.003186 -0.452123
0.205844 0.346450 -0.362045
0.119155 -0.192784 -0.426904
-0.096368 0.334699 -0.369423
-0.293632 -0.016380 -0.209770
0.133074 -0.091205 0.448852
-0.308129 0.138131 0.214846
-0.368383 -0.122111 0.250414
-0.089368 0.374650 -0.158858
0.258376 -0.138229 0.353583
-0.305381 0.154609 0.085477
0.235237 0.292936 -0.378354
-0.052889 -0.073625 0.461241
0.349047 0.326750 -0.100943
0.068586 0.481396 -0.319944
-0.005004 -0.357245 -0.027576
0.348434 0.314142 -0.066737
-0.278773 0.203934 -0.156894
0.439344 0.178254 -0.260663
-0.013655 0.271735 0.158339
-0.138543 -0.321323 0.315625
0.205232 -0.021585 -0.508813
-0.132827 -0.098662 -0.370171
-0.191454 -0.042297 -0.441163
-0.258862 0.283870 0.023591
-0.192164 0.377175 -0.081812
0.306895 0.378075 -0.143950
-0.304779 0.159577 0.057347
-0.117555 0.018815 -0.460341
0.001498 0.162684 -0.483357
-0.241529 -0.296765 0.077729
0.412337 0.378548 -0.228942
-0.348247 -0.223129 0.243441
0.395713 0.202267 -0.081720
0.445569 0.319838 -0.262567
0.459189 0.296993 -0.272325
-0.159710 0.362113 -0.152367
-0.275150 -0.051811 -0.144525
-0.120793 0.276778 -0.294355
0.192689 -0.262074 -0.062210
0.294614 0.296206 -0.021639
-0.053274 -0.036891 -0.423898
-0.265637 0.283309 0.019580
0.241785 -0.146220 -0.321806
0.365408 0.175265 0.020609
0.050557 0.174865 -0.467693
0.250448 -0.196584 -0.143681
-0.293677 0.045935 -0.143100
0.128016 0.106022 -0.480009
0.369734 0.263466 -0.362255
0.067276 0.458702 -0.343847
-0.020006 -0.192484 0.441818
0.095194 0.222099 0.249340
0.067454 0.232164 0.242828
-0.358380 -0.002909 0.201295
-0.102639 0.302036 -0.364267
0.036703 -0.061826 -0.412008
-0.094262 0.211729 -0.482878
0.282042 0.085841 0.270299
0.310333 -0.184185 0.144246
-0.120561 0.104649 -0.439465
-0.279518 0.179819 0.248220
0.201426 -0.269793 -0.028789
0.100888 -0.159004 0.447274
0.148924 -0.099676 0.444204
0.222665 -0.151380 -0.374739
-0.064137 -0.152367 0.458771
-0.148665 -0.157373 -0.332539
0.067914 -0.141220 0.458141
-0.142862 -0.346974 -0.028717
0.277189 -0.020558 -0.423009
0.396570 -0.016806 -0.257136
0.408391 0.138845 -0.406555
-0.187940 -0.189084 -0.106883
0.213581 0.240306 0.126449
0.063991 0.362204 -0.030891
-0.329201 0.063273 0.342794
0.389054 0.119401 -0.049707
0.051533 0.027890 0.436924
0.365773 0.024172 -0.433542
0.266089 0.015146 -0.489188
0.228074 0.138980 0.283150
-0.170746 -0.295486 -0.046697
-0.116649 -0.036094 0.447622
0.442871 0.189941 -0.225462
-0.060082 0.380442 -0.044067
0.415110 0.154110 -0.120838
-0.081432 0.310366 -0.203110
-0.306771 0.151028 -0.344172
-0.213833 0.281743 -0.249177
0.263366 -0.246368 0.146000
0.353681 -0.111035 -0.214515
-0.056427 -0.369399 0.109024
-0.079115 0.402960 -0.071526
0.147488 0.207641 0.246046
-0.336799 -0.064021 0.161057
0.160332 -0.224095 0.376098
-0.329955 -0.103461 -0.074503
0.191076 0.043674 -0.493197
-0.098476 0.296691 -0.335353
-0.222451 -0.304846 0.009240
0.199144 0.269438 -0.395932
0.223236 0.053258 -0.482264
-0.294468 0.142206 0.060551
0.128031 -0.337960 0.124536
0.191540 0.109104 -0.465378
0.203958 -0.216753 -0.150816
0.323728 0.296566 -0.038855
0.289776 -0.214176 0.157169
0.228361 -0.283098 0.109289
-0.297149 -0.037290 -0.110343
0.295834 -0.158598 -0.116417
-0.193567 -0.200893 0.425147
-0.239092 -0.133911 -0.024781
-0.294523 0.197407 -0.202482
-0.219648 -0.107715 -0.270978
0.351848 0.304005 -0.075289
-0.226457 -0.366319 0.210460
0.233009 0.270843 -0.388149
-0.075035 -0.158561 0.457086
-0.095320 0.377415 -0.413058
0.102471 -0.280594 -0.216348
0.057007 -0.327303 0.241925
0.137263 0.177779 -0.447783
0.066495 -0.194318 -0.443907
-0.077918 0.137430 -0.504035
0.325282 0.345645 -0.110641
0.348782 0.060719 0.178630
0.207918 -0.171457 0.380935
-0.015354 -0.353735 -0.031709
0.433227 0.303891 -0.331696
0.213651 -0.230530 -0.116012
-0.262326 0.008775 -0.353566
-0.118581 0.050486 -0.469187
-0.273151 0.187842 -0.289678
-0.322706 0.012031 -0.269152
0.248857 -0.020424 -0.438507
-0.228484 -0.153464 -0.037366
0.207815 -0.242492 -0.096413
0.071320 -0.194686 -0.443018
0.079613 -0.182989 0.439168
0.204803 -0.206331 -0.200619
0.339020 -0.087413 -0.172611
0.056746 0.001501 -0.539016
-0.124692 0.326295 -0.413997
-0.064158 0.464664 -0.369931
0.129736 -0.171753 0.431769
0.345505 -0.106953 0.016930
-0.261375 0.244328 -0.072306
-0.076757 0.379932 -0.158767
0.035799 0.073755 -0.513595
-0.335194 -0.298050 0.260248
-0.196699 -0.124283 0.448797
0.209450 -0.208077 -0.174975
0.322941 -0.134783 -0.158277
0.358275 0.258318 -0.111791
-0.076276 -0.087340 0.462304
0.190271 0.253647 -0.404481
-0.279228 -0.043138 -0.364068
-0.117067 0.206237 -0.488335
-0.213290 0.122304 0.360170
0.194279 -0.306772 0.103038
-0.093181 0.178790 -0.494746
0.350272 -0.020420 0.233547
-0.334898 0.110391 0.160291
0.371484 0.234945 -0.104937
0.230856 -0.233018 0.285961
0.437747 0.161207 -0.324392
0.357072 0.002352 0.153472
-0.137032 0.068187 -0.458742
0.184151 -0.009155 -0.437217
-0.025096 -0.022375 0.452000
0.278979 0.201354 0.079703
-0.002288 0.187344 0.317661
0.410001 0.169314 -0.073665
0.296385 0.041656 -0.471316
-0.073487 -0.248430 0.408036
0.347530 0.236876 -0.038933
0.131848 -0.008461 -0.485688
0.402677 0.293681 -0.219123
0.142254 0.246055 0.174443
-0.098063 0.444129 -0.367246
-0.031265 -0.303337 -0.225730
-0.297473 -0.139775 0.413270
-0.076303 0.425940 -0.323204
0.457007 0.288787 -0.333042
0.245500 0.474394 -0.292832
-0.338859 0.107680 0.185854
-0.335833 -0.007804 0.195162
0.269312 0.191721 0.130656
0.294863 0.117050 0.214889
0.388979 0.394329 -0.302925
0.132708 -0.157889 -0.453102
0.068185 -0.239933 -0.376788
-0.326483 -0.101525 -0.082369
-0.288715 0.063630 0.012145
-0.161841 0.048047 0.407936
-0.040128 -0.326188 0.300302
0.140638 -0.234395 -0.242655
0.209067 -0.147844 0.396703
-0.290004 0.032238 0.071439
0.193310 -0.020240 0.418936
0.108436 0.301145 -0.401897
0.289981 -0.181240 0.247547
0.254718 -0.099811 0.379571
-0.388039 -0.163760 0.346953
-0.003956 0.259354 0.195988
-0.298108 0.110095 0.060431
-0.321980 -0.130682 0.147385
-0.199250 -0.163734 -0.199393
-0.132416 0.103909 -0.440701
-0.226386 0.321475 -0.006212
-0.010448 -0.295945 -0.226105
0.002214 0.250967 0.217267
0.354740 0.250422 -0.068267
0.025174 0.022862 -0.537333
-0.299497 0.128021 -0.396242
-0.180963 -0.192478 -0.178929
-0.269847 -0.215154 0.036166
-0.355875 -0.199038 0.287400
0.084039 -0.072208 -0.437154
-0.049221 -0.186027 0.445804
0.141675 -0.289473 0.283285
-0.042813 0.406696 -0.307631
-0.037146 -0.007964 0.446227
-0.061595 0.302772 0.082977
-0.108250 -0.175164 -0.320438
0.219609 -0.274829 0.173070
0.375321 0.134697 -0.415333
0.122014 -0.332685 0.156290
0.417118 0.066818 -0.201814
0.021053 0.229567 -0.450773
-0.303489 0.161859 -0.218711
-0.310849 -0.305319 0.181407
0.255399 0.042170 0.369350
0.243090 -0.245107 0.214517
-0.010516 -0.088676 -0.418093
0.356415 0.013923 0.136678
0.447409 0.358450 -0.277625
0.145806 -0.286584 0.288603
-0.123619 0.252485 -0.369218
-0.124335 -0.378176 0.162192
-0.349474 -0.205540 0.251393
0.012076 0.361094 -0.014177
-0.342814 0.113752 -0.224119
-0.006849 -0.276080 0.376766
-0.133319 -0.054455 -0.393005
0.097815 -0.126108 0.457151
0.397144 -0.014487 -0.200976
-0.037386 0.027735 -0.493551
-0.314817 0.107482 0.324419
-0.034899 -0.378087 0.159576
0.329843 0.105726 0.157057
-0.297218 -0.034936 0.014144
-0.221490 -0.315539 0.017508
0.057185 0.184553 0.313076
0.199718 -0.095552 -0.429432
0.009431 -0.345530 -0.064226
-0.217251 0.117007 0.362815
-0.298689 0.171561 -0.232391
0.295047 0.171104 0.112354
0.103405 0.285468 -0.409522
0.151659 0.395636 -0.069364
0.017492 -0.355249 0.195490
0.305781 0.425661 -0.307428
0.266615 0.199548 0.118921
0.238831 -0.096920 0.396295
0.153313 0.169243 -0.448013
-0.244475 -0.171120 -0.003873
0.256967 -0.163676 -0.256699
0.310706 -0.127018 -0.297905
0.080087 -0.337434 -0.004638
0.261473 0.413420 -0.322020
0.048754 -0.324843 -0.193319
0.274480 -0.154080 0.324021
0.010587 -0.342766 -0.106702
0.285935 -0.125126 0.328025
0.357839 0.016419 0.080228
0.029812 -0.305560 0.329383
-0.174510 -0.326063 0.300500
-0.240618 -0.330313 0.077442
-0.260606 0.235615 0.093799
-0.012878 -0.194289 0.440672
-0.244936 0.044858 -0.374457
-0.311245 -0.029650 -0.082940
-0.278072 -0.106136 -0.047409
0.133358 0.345424 0.006188
0.140369 0.342905 0.005132
-0.006922 -0.379451 0.129550
-0.339866 -0.115008 0.000583
-0.110593 -0.097215 0.461940
-0.213976 -0.202518 -0.008161
0.306699 -0.190894 0.061464
-0.375449 -0.063409 -0.054082
-0.140229 0.378980 -0.401769
-0.356309 0.072229 -0.284903
0.356165 -0.068837 -0.030336
0.036893 -0.181539 -0.444947
0.002092 -0.349372 0.230302
-0.031618 0.296439 -0.432980
0.270291 -0.108748 -0.384873
-0.124664 -0.046362 0.449688
0.087638 -0.165253 0.447145
0.343070 0.405338 -0.278083
-0.205285 0.327702 0.049404
0.133960 0.463219 -0.236962
-0.010241 0.269875 0.162968
-0.285039 -0.312277 0.238715
0.267550 -0.122139 0.351970
0.037636 0.176102 -0.469936
-0.129053 0.240041 -0.474977
0.139005 -0.329196 0.148833
0.098611 0.276840 0.112377
0.212324 -0.226527 -0.125457
0.402948 0.122634 0.018386
-0.278403 -0.230650 0.178901
0.027921 -0.267597 -0.286480
0.016176 -0.366675 0.006150
-0.247652 0.258096 0.112905
0.099515 0.299564 0.066881
0.141861 -0.179833 0.420899
-0.142391 0.338659 -0.426528
-0.317533 0.014969 0.183281
0.174391 -0.280379 0.254638
-0.087648 0.397920 -0.060150
-0.041595 -0.077043 -0.433894
-0.028005 -0.108239 -0.419661
0.118961 -0.302663 -0.087803
-0.241834 -0.111967 -0.100859
0.353667 -0.083121 0.075076
-0.373187 -0.026226 0.317113
-0.060805 0.312211 -0.231131
-0.097392 -0.320563 0.316519
-0.272701 -0.049695 -0.191906
0.359698 0.045065 0.012319
-0.250484 -0.070330 -0.204018
-0.120138 -0.204324 -0.286719
0.197404 -0.294604 0.155033
0.229864 -0.088981 0.405575
0.418200 0.161274 -0.183210
0.303986 0.372298 -0.330292
0.339979 -0.017393 0.274755
-0.218838 0.317306 -0.147049
0.185337 -0.137850 -0.446713
0.367056 0.198308 -0.024169
0.187826 -0.266875 -0.057747
-0.181465 -0.100856 -0.373317
-0.174436 0.323859 0.064619
0.433606 0.274399 -0.231515
-0.070228 0.219707 -0.474374
0.085250 -0.216280 0.415245
0.165407 0.435588 -0.195348
0.247941 0.439164 -0.245296
-0.086803 0.317332 -0.340032
-0.325627 0.062377 0.163450
-0.301037 0.144650 -0.229311
0.041263 -0.194816 0.437072
-0.153215 -0.206216 -0.131624
0.391758 0.097295 0.065981
0.164672 0.230044 0.195224
-0.321048 0.011596 0.205835
-0.106575 -0.357426 0.241999
0.140163 0.409271 -0.082981
0.229820 -0.108266 0.400316
0.438870 0.176563 -0.369234
-0.291525 -0.186967 0.041204
0.270277 -0.188887 0.288226
0.262506 0.089244 0.295459
0.103494 0.299674 -0.403575
-0.082988 0.204142 0.291202
-0.067443 -0.277732 0.380400
0.333662 -0.120419 -0.028071
-0.285259 0.061595 0.030450
-0.304667 0.174004 0.072981
-0.225254 -0.250066 0.083234
0.413155 0.397771 -0.296331
-0.349414 -0.130305 0.248431
-0.332901 -0.012579 0.146781
-0.225269 0.320915 0.023763
0.025277 -0.126001 -0.476604
-0.305628 -0.180043 0.111274
0.213213 -0.276109 0.005505
0.208483 0.156785 -0.441530
-0.296348 0.033239 -0.049146
-0.316322 0.123776 -0.303384
0.367235 0.042286 -0.456276
-0.310680 0.055080 0.140846
0.178242 0.498489 -0.281743
-0.055142 0.416930 -0.135877
0.272776 -0.230868 0.029069
-0.156994 -0.071015 -0.399921
0.397562 0.148336 -0.002208
-0.280045 0.170452 0.247515
0.397167 0.098664 0.051813
-0.266565 0.210959 0.209375
0.103892 -0.190415 -0.448618
-0.031434 -0.007897 -0.451167
-0.259913 0.227876 0.203746
-0.357637 -0.030020 0.185906
0.112133 0.313277 0.054007
-0.087038 0.359663 0.009001
-0.176437 -0.255754 0.391420
0.302463 -0.146944 0.275521
0.287278 0.194946 0.070650
0.391358 0.221244 -0.123989
0.354906 0.057327 0.125175
0.222759 -0.237147 0.293905
-0.253664 0.212668 -0.278853
0.352589 0.042332 0.075807
0.043116 0.302812 0.053655
-0.382678 -0.033063 0.262446
0.188474 0.450193 -0.230168
-0.179349 -0.367513 0.030426
-0.130618 0.052124 0.409749
-0.253227 -0.124653 0.004815
0.334415 -0.036800 -0.414219
-0.250253 -0.294807 0.329640
-0.165219 -0.162448 -0.304696
0.136428 0.235292 0.196124
-0.073522 0.310476 -0.268499
-0.307080 -0.059832 0.047228
-0.105255 0.398780 -0.144882
-0.244861 -0.089285 -0.194184
0.129461 0.314886 0.049785
-0.044424 0.369865 -0.405584
0.254902 0.195545 -0.415225
0.072570 0.187198 0.308636
0.137101 -0.213786 -0.328975
0.365052 -0.002748 -0.361465
0.361400 0.200279 -0.390680
-0.057079 0.041323 0.422462
-0.334624 -0.224018 0.300957
0.431891 0.142207 -0.388184
-0.179114 0.184277 0.333739
-0.002933 -0.116868 0.463623
0.018096 0.176966 0.329230
0.373683 -0.033693 -0.236066
-0.317212 0.019599 -0.098687
0.332767 0.136793 0.094268
0.119872 0.375662 -0.367531
0.345867 -0.059289 -0.301450
0.185522 -0.225783 -0.178999
0.260840 0.321503 -0.360873
0.418916 0.300937 -0.234434
0.320044 -0.162883 -0.181905
-0.215282 0.186380 0.317702
0.140890 -0.020520 0.436639
-0.087238 0.412423 -0.341537
-0.286652 -0.122523 0.011088
-0.128373 -0.325360 -0.103483
-0.278872 0.208993 0.211122
0.321432 -0.147306 0.161508
0.340073 0.009408 0.262790
0.400125 0.103322 0.001356
-0.233248 -0.294316 0.334749
-0.186009 -0.347287 0.050216
0.428028 0.432066 -0.263027
-0.126233 -0.275568 -0.211263
0.273359 0.307320 -0.037414
0.180078 -0.313028 0.124745
0.365882 -0.006857 -0.016462
-0.203205 -0.267345 0.015949
0.319897 -0.162507 0.030848
0.352948 0.298002 -0.113696
0.301030 0.272332 0.024319
0.250554 0.071078 -0.468764
-0.295018 0.022830 -0.052933
-0.344319 -0.042636 -0.039401
0.188924 -0.108275 0.426891
0.101143 -0.338645 0.155199
-0.186678 0.285338 0.174543
-0.297509 0.033235 -0.031742
-0.030259 0.146694 -0.496933
-0.302937 0.031143 -0.073220
0.031021 -0.100472 -0.438112
0.196896 0.395242 -0.116165
-0.264719 -0.331041 0.247079
0.231893 -0.026392 -0.490124
-0.181379 -0.380546 0.081126
-0.113687 -0.300142 0.351748
-0.194507 0.329222 -0.143802
0.361815 -0.022176 0.034527
-0.250943 0.244628 -0.166772
0.173747 0.430584 -0.134826
-0.213307 -0.296308 0.337803
0.242586 -0.226017 0.275718
-0.345716 -0.079671 -0.105055
-0.147941 0.292426 -0.209676
0.271284 0.200837 0.104630
0.002669 -0.383993 0.127476
-0.277901 0.185649 0.245507
-0.140515 0.250708 0.215095
-0.071277 0.188240 0.311398
0.257973 0.050676 0.360705
-0.055260 0.386289 -0.053307
0.079006 -0.154806 -0.476793
-0.169433 -0.183234 -0.288494
-0.023943 -0.136107 0.462105
0.078956 -0.308751 0.288874
0.030241 -0.294476 -0.237563
-0.364367 -0.117081 0.366161
-0.121701 -0.193214 -0.298603
-0.322496 -0.271551 0.315969
0.267530 -0.019669 0.376426
-0.262879 0.240627 0.139274
-0.124919 -0.367614 0.099781
-0.102264 0.304087 -0.370314
-0.373684 -0.142237 0.316179
-0.089452 0.308279 -0.439970
-0.327642 -0.197057 0.376693
0.040025 0.127579 0.369592
0.283775 0.109114 0.243461
-0.002275 -0.242829 0.408567
-0.331924 -0.245811 0.191082
-0.218109 0.230423 0.226465
-0.251218 -0.345011 0.123218
-0.282710 -0.018150 0.031214
-0.078819 0.061605 0.410527
0.133419 0.327345 0.034075
0.317824 0.244761 -0.381175
-0.157648 -0.385468 0.160508
0.355817 0.283940 -0.356552
-0.299719 -0.028083 -0.225925
-0.242222 -0.154146 0.430737
0.310380 0.039919 0.287267
-0.302237 -0.298204 0.274918
-0.243745 0.174007 -0.372678
-0.333015 0.058001 0.315956
0.338152 0.345106 -0.118138
-0.333555 0.038264 -0.304576
0.052499 0.312504 0.038377
0.000153 0.138032 0.365207
0.218282 -0.195768 -0.202615
-0.196255 0.184383 -0.363716
0.340174 -0.008920 0.272228
-0.141093 0.315126 -0.447736
-0.153387 0.383021 -0.423090
0.360130 -0.030227 0.071825
0.343252 -0.106102 -0.285895
0.196821 0.322436 -0.006606
0.273983 -0.109443 -0.335442
0.240703 -0.260661 0.021436
0.317294 -0.109640 -0.135381
0.216962 0.002034 0.404340
0.353796 0.024229 0.176905
0.138021 0.406608 -0.075130
-0.152392 0.304186 -0.186392
-0.227346 0.153563 -0.429226
0.354762 -0.004478 0.194196
-0.345472 -0.067152 0.118783
-0.342933 -0.201524 0.335114
-0.292798 0.076022 -0.081932
-0.230510 -0.235678 0.392010
0.199505 0.181781 -0.432877
-0.040306 0.415440 -0.385583
0.356006 0.069103 0.138047
-0.069301 0.351705 0.002947
-0.161230 -0.295880 0.351767
-0.274837 0.125217 0.019871
0.163587 -0.272275 0.308303
-0.309445 0.166572 -0.192756
0.246238 -0.268718 0.121124
0.263816 0.134051 0.238849
0.323591 0.079728 0.217520
0.074667 0.227697 0.247901
0.398810 0.155247 -0.020732
-0.282486 0.232104 0.029120
0.313707 -0.145814 -0.070667
-0.218834 0.103844 -0.392447
0.330730 -0.131295 0.010957
-0.009313 -0.139291 -0.450120
0.103973 -0.215030 -0.395343
-0.171236 -0.348919 0.232732
0.124306 -0.271616 -0.175936
-0.232113 0.245939 -0.321483
0.165025 0.383188 -0.354926
-0.294188 0.182940 -0.167445
-0.222772 0.280308 0.152857
-0.146982 0.078267 -0.447676
0.285758 -0.176455 -0.128072
-0.378283 -0.083161 0.305482
0.291369 0.327081 -0.070381
0.233975 0.168184 -0.431272
0.121897 -0.240972 -0.265008
-0.175672 -0.103052 -0.371044
-0.195512 0.223941 -0.337885
-0.223587 0.267984 -0.289302
0.239529 0.253407 0.086408
-0.168948 -0.188134 -0.201343
-0.094746 0.307757 -0.347071
0.379205 0.015826 -0.382871
-0.323376 -0.113568 0.177107
-0.242948 0.205450 0.249890
-0.007736 -0.007081 0.447715
-0.345462 -0.222311 0.255717
-0.275248 -0.127382 0.424013
-0.066937 0.384295 -0.336711
0.032098 -0.083198 -0.415555
-0.378039 -0.007357 0.289933
0.208113 -0.161956 0.387781
0.017455 0.424290 -0.268083
-0.094428 0.056133 -0.450445
0.333565 0.376920 -0.176077
-0.297376 0.164734 0.232427
-0.224804 0.248697 0.181499
-0.238096 0.302144 -0.073198
-0.309279 -0.041036 0.398576
-0.250897 -0.048023 -0.360798
0.173322 0.293548 -0.391225
-0.066244 0.187206 -0.487425
0.124971 0.304620 0.057694
0.404113 -0.022924 -0.161303
-0.322844 -0.156803 0.072019
-0.219969 0.341912 -0.028449
0.049448 -0.301716 -0.216178
-0.155059 -0.304993 0.340229
0.013738 -0.334128 0.258394
0.035671 0.272647 -0.429082
0.265758 0.146153 -0.433839
0.184186 -0.304506 0.149076
0.122381 -0.238959 -0.283922
0.340770 0.202390 -0.009302
-0.027068 -0.234397 0.416321
-0.072465 -0.130533 -0.402092
-0.142293 0.034675 0.416415
-0.333173 0.082380 0.240735
0.163643 0.332291 0.021971
-0.040117 0.430786 -0.297353
-0.007340 0.187418 0.317275
0.367182 0.080179 0.006213
0.174712 0.414083 -0.118053
-0.078119 -0.370585 0.078269
0.042003 -0.005476 -0.485656
-0.041311 -0.386173 0.075545
0.255204 0.453846 -0.306315
0.002608 0.276000 0.141428
-0.198410 -0.276793 -0.031886
-0.164172 0.302671 -0.180600
-0.271755 0.177450 -0.110299
0.147557 0.383487 -0.358278
-0.255072 -0.141636 0.429068
0.297138 0.110114 0.221423
-0.280322 0.209430 -0.199654
-0.327086 0.007482 0.212930
-0.086754 -0.195941 -0.275508
-0.183341 -0.152539 -0.292104
-0.254712 -0.016486 0.413226
-0.373618 -0.102616 0.299274
-0.322195 -0.155239 0.065457
-0.352737 0.034952 0.277003
-0.161799 -0.381390 0.032116
0.058864 0.400322 -0.087111
0.217339 -0.284280 0.047590
0.358274 -0.031295 0.144032
0.114316 -0.104721 -0.457791
0.386278 0.114547 -0.041922
-0.070089 -0.163194 0.455550
0.347075 -0.092141 0.133470
0.255519 0.235955 0.069904
-0.033104 0.373297 -0.304352
0.053241 -0.037335 0.456167
-0.374450 -0.065683 0.270308
-0.234118 0.271551 -0.108520
-0.099794 0.093100 -0.447378
-0.125277 -0.299053 -0.124524
0.399345 0.322815 -0.218623
0.296655 0.079480 -0.455408
-0.322245 0.051132 0.348252
0.175794 0.067933 -0.486182
-0.225903 0.280965 -0.137569
0.243958 0.142562 0.250923
0.006481 -0.166063 -0.455519
0.044819 0.272368 0.149567
0.170429 0.151761 0.307021
-0.298828 0.085055 -0.146566
-0.228290 0.299599 -0.130208
-0.206516 -0.238160 0.397735
0.055565 -0.230014 -0.378585
-0.270789 -0.291201 0.151567
-0.340280 -0.299812 0.235815
0.051897 -0.012990 -0.474091
-0.294765 0.030529 -0.015477
0.415477 0.140227 -0.122281
0.280181 0.452145 -0.290205
0.246237 -0.250039 -0.002295
-0.293955 -0.171932 0.404246
0.233409 -0.026836 -0.463791
-0.051797 -0.049270 -0.426998
-0.089022 0.160542 0.338084
0.029631 0.500986 -0.334567
-0.227676 -0.330149 0.041322
0.300108 0.332987 -0.078985
0.160368 -0.277030 -0.097413
-0.125683 -0.274105 0.383422
-0.064642 -0.233329 0.418911
-0.247252 0.291790 0.074403
0.046137 -0.328922 -0.162122
-0.075343 -0.069618 0.459445
-0.292394 0.159464 -0.279636
0.377397 0.155076 0.057522
0.244001 -0.185272 0.338108
0.272928 0.026186 -0.482954
-0.303522 0.138085 -0.172597
-0.360462 -0.071332 0.254248
-0.223044 0.084145 0.381243
0.055286 -0.360327 0.111726
0.341111 0.037985 0.232928
0.108084 -0.020598 -0.449249
-0.279931 0.238335 0.048438
0.389342 -0.025159 -0.209098
0.425860 0.017148 -0.293646
-0.352143 -0.060077 0.344434
-0.335311 0.025111 -0.217884
-0.348053 -0.057354 -0.014264
0.166211 -0.218901 -0.258476
-0.256912 -0.042277 -0.392097
-0.141446 0.073372 -0.452418
0.291956 -0.176602 0.250765
-0.042289 0.169640 -0.489806
0.212053 -0.261723 -0.037844
0.220867 0.424361 -0.163334
0.128038 -0.151383 -0.454342
-0.307378 0.137933 -0.302354
-0.308021 0.058147 0.115846
-0.199837 -0.326330 0.294718
0.027928 -0.279827 0.368017
-0.289725 0.118141 -0.096747
-0.290046 0.055265 0.011769
-0.351149 0.045677 0.275024
-0.240134 0.206917 -0.291553
-0.164741 -0.210433 -0.073662
0.425288 0.296479 -0.237593
0.160083 0.075584 -0.486271
0.399788 0.086457 -0.157228
-0.307896 -0.075819 -0.275702
0.042232 -0.343671 0.205886
-0.047605 0.322182 0.045284
0.167265 0.458889 -0.251369
-0.142768 -0.025028 -0.439676
0.196358 -0.272392 -0.029709
-0.123993 0.423962 -0.128639
0.162350 0.106737 0.366901
0.168392 0.182751 0.267242
0.195600 -0.219611 0.353642
0.020883 0.071927 0.410181
-0.262496 -0.226287 0.091928
0.075623 0.172295 0.324546
0.072260 0.019063 -0.528231
0.050877 0.497828 -0.331046
-0.265743 0.183206 -0.000252
-0.002863 0.427577 -0.115989
0.207694 -0.200275 0.360308
-0.158410 -0.204630 -0.253764
-0.263931 0.237105 -0.071028
-0.355362 -0.102588 -0.030537
-0.205254 -0.163887 -0.256577
-0.223821 0.053352 0.395523
0.001958 0.057599 -0.527732
0.278767 -0.204127 0.233351
-0.202884 -0.151597 -0.270837
0.249066 -0.086734 0.389975
-0.074062 -0.335997 -0.004842
-0.279244 -0.119284 -0.004738
0.083541 0.259694 0.167221
0.281132 0.183841 0.122328
0.318509 0.384612 -0.161235
0.440363 0.189525 -0.327339
-0.146713 -0.299546 -0.106867
0.196240 -0.267347 -0.043874
-0.019721 0.216376 0.277072
0.060744 -0.192919 -0.446619
-0.203143 0.283394 0.153484
0.078059 0.190811 0.303194
0.276222 -0.196396 0.257295
-0.130209 0.327739 -0.439846
-0.347440 0.063734 -0.262894
0.391227 0.154368 0.022278
0.041403 -0.095913 -0.452393
-0.148319 0.230028 -0.345478
-0.318610 0.141742 -0.246920
0.095305 0.040853 0.427408
-0.279296 0.213847 0.052869
0.337186 0.257067 -0.001729
0.364319 0.242108 -0.097256
0.176796 0.279318 -0.396510
-0.246683 0.229104 -0.121401
0.029942 -0.367231 0.022198
0.095868 -0.225761 -0.377491
0.151652 0.459994 -0.325031
-0.319486 -0.163397 0.071016
-0.258738 0.170986 -0.010603
-0.296360 -0.048006 0.039891
-0.137418 -0.374770 0.208315
0.318240 -0.135702 0.218013
-0.010238 -0.372734 0.182867
0.337982 0.398161 -0.270726
-0.066365 0.237983 0.245516
0.358575 0.024294 0.036404
-0.334784 -0.053473 -0.005011
-0.261404 0.154054 -0.003387
-0.219566 0.340396 -0.114465
-0.026360 0.377429 -0.296286
-0.096464 0.335965 -0.172090
-0.190635 -0.275471 -0.062814
0.120985 -0.216048 0.403441
-0.299421 0.048945 -0.321053
-0.209495 0.121813 -0.414510
0.059230 0.250525 -0.433676
-0.068780 -0.171110 0.452731
-0.288926 0.207691 0.185795
-0.298064 -0.040616 -0.230626
0.048490 -0.018462 0.452135
0.367935 0.251420 -0.367729
-0.348516 -0.061910 -0.003865
-0.233013 -0.348705 0.092670
0.273380 0.043704 0.341147
-0.294328 -0.195808 0.064495
0.296536 0.376701 -0.330022
-0.228522 0.169891 -0.395643
-0.177338 0.273824 -0.292535
-0.233736 0.344223 -0.085822
0.042080 -0.247831 -0.335442
-0.012895 -0.331189 -0.173103
0.000705 0.230501 0.257380
0.189942 -0.225467 0.352766
0.250400 0.366048 -0.141102
0.281941 0.405646 -0.207083
-0.334934 -0.001901 0.118363
-0.337002 0.035691 0.325767
-0.178403 0.203645 0.322825
-0.228114 -0.149911 -0.081092
0.009821 -0.379072 0.137850
-0.083119 0.444700 -0.338203
-0.307879 -0.067084 0.409363
-0.081282 -0.364855 0.030554
