0.132150 0.014232 0.220651
0.083061 0.329248 -0.062042
0.049845 -0.146411 -0.065584
0.256303 -0.027563 -0.188375
0.196416 -0.176905 0.134444
0.014693 -0.188003 0.273060
0.128233 0.068619 0.206577
0.201943 -0.272982 0.117499
0.112467 -0.168621 -0.016610
-0.291087 0.118768 -0.283978
-0.035193 -0.027643 -0.177624
-0.040117 -0.266336 -0.130077
-0.082943 0.039428 -0.184052
0.108895 0.244764 0.113774
-0.149373 0.396725 -0.100741
0.096245 -0.203738 -0.205720
0.329108 -0.228730 0.138216
-0.022174 0.282095 0.104436
0.031719 0.297377 0.075900
0.062731 -0.093725 0.260633
0.027427 -0.106100 -0.035275
0.167325 0.272163 -0.119129
-0.126385 0.102214 -0.031702
0.069390 -0.137917 -0.033806
-0.302310 0.152784 0.119252
0.258439 -0.297359 0.047759
-0.023124 -0.236434 0.217563
-0.017343 -0.058920 0.053477
0.048790 -0.182551 -0.095461
-0.135689 0.250121 -0.242092
-0.000446 -0.165294 -0.182327
0.282642 0.045069 -0.158068
0.305735 0.010699 -0.085560
0.285034 0.127044 -0.061337
0.307183 -0.056306 0.011281
0.015922 0.325238 -0.181188
-0.046833 0.073149 -0.297958
-0.053004 -0.018388 -0.080645
-0.299437 0.218146 0.039148
-0.057717 0.222019 -0.315145
0.212279 -0.178144 0.143906
0.100893 -0.215864 -0.189898
-0.050983 0.005663 -0.229925
-0.042590 -0.029945 0.048216
0.354781 -0.347036 0.055137
0.165234 -0.136254 -0.243256
0.140646 -0.044430 0.222645
0.272646 0.085435 -0.145003
-0.019079 -0.220116 -0.197923
0.214845 0.057754 0.160376
0.160764 -0.022982 -0.270137
0.333466 -0.346956 0.074314
0.277036 -0.131525 -0.052015
0.154359 -0.185400 0.109508
-0.279879 0.183231 0.123215
-0.161186 0.219638 -0.250720
0.094672 -0.030837 -0.308029
0.052416 0.004762 0.236912
-0.124338 0.363514 -0.017784
0.082164 -0.237365 -0.158633
0.134299 0.293873 -0.095038
0.271111 -0.322118 0.086230
-0.137312 0.124839 0.065095
-0.212705 0.442278 -0.157133
-0.017990 0.126226 0.221874
-0.204981 0.404079 -0.181440
-0.038020 -0.041009 -0.042864
-0.008791 -0.091016 -0.117899
-0.093108 0.203509 -0.324921
0.136452 -0.030293 0.224141
-0.340449 0.179676 0.141424
0.309222 0.038885 0.018000
-0.275822 0.161522 0.039973
-0.146113 0.306366 0.078062
-0.106755 0.059450 -0.098263
-0.049384 0.048108 -0.275518
0.252139 -0.118417 -0.140743
0.166959 -0.225589 -0.030054
-0.113720 0.353348 -0.004216
0.203513 0.110777 -0.244300
-0.045024 0.092742 -0.331069
0.014470 0.016146 -0.339238
-0.200326 0.399641 -0.113850
0.079730 0.300937 0.033262
-0.189186 0.210230 0.003662
-0.075024 -0.229798 0.276916
-0.036432 -0.011403 0.103302
0.086890 -0.120686 0.087014
0.274808 0.069255 0.081160
0.286572 -0.221156 0.179431
0.116089 -0.172182 -0.012296
-0.160548 0.230451 0.133376
-0.071968 0.039153 -0.227635
0.178597 -0.245756 0.102619
-0.154575 0.281232 -0.173292
-0.224329 0.184973 0.020541
0.111052 -0.126053 0.106436
0.177043 -0.085111 -0.251237
0.036214 -0.141626 -0.073599
0.149779 -0.126588 0.136007
0.263442 0.111329 -0.157778
0.314089 -0.192924 0.159594
0.180816 -0.018540 -0.258523
0.053393 -0.140511 -0.232862
-0.275503 0.091943 -0.266284
-0.148201 0.282039 -0.198050
-0.096396 0.085043 0.093805
0.229712 0.163707 0.088131
0.098667 -0.087805 0.241951
0.216794 -0.027697 0.162065
0.149312 0.290995 -0.045643
-0.242824 0.217548 0.119945
-0.007735 -0.041739 -0.245103
0.263072 -0.138616 -0.099804
-0.027500 -0.121748 0.250916
0.180648 -0.198575 0.124182
-0.245767 0.174464 0.115959
0.062943 -0.157117 -0.067758
0.237578 -0.180266 -0.083501
-0.025316 0.334091 -0.179087
-0.092065 0.151394 -0.318249
0.029059 -0.191490 0.232352
0.295540 0.078170 -0.117382
-0.008749 -0.222290 -0.126753
0.046105 0.312090 0.033341
0.165929 -0.215844 0.102190
0.193753 0.182883 -0.207058
-0.040784 0.344005 -0.007409
-0.116975 0.204161 0.155122
0.066255 -0.147600 0.173163
0.253229 -0.306110 0.140812
0.098147 -0.009115 -0.307669
0.220597 0.228703 -0.100020
0.195228 0.196515 0.098351
0.272386 -0.147746 -0.046407
-0.113292 0.085906 0.012465
0.329023 -0.306261 -0.010928
-0.050886 0.356051 -0.046612
0.221080 0.212830 -0.135961
0.198800 0.133322 0.141582
0.051478 0.001370 0.236677
0.230919 0.128242 0.113767
0.084400 -0.234130 -0.181313
0.166425 0.049053 -0.272435
0.351442 -0.238313 -0.028083
-0.054897 -0.225722 0.219835
-0.320113 0.157228 0.060842
0.084533 0.045828 0.227990
0.046287 -0.095150 0.263713
0.176460 0.056368 0.186597
0.169902 0.249781 0.049140
0.225110 0.168995 0.089295
0.305393 -0.168009 0.091388
-0.197846 0.148287 -0.212917
-0.049600 0.342797 -0.001375
-0.139483 0.126013 0.043047
-0.024344 -0.059400 -0.042956
-0.026877 -0.059856 -0.087720
0.295662 -0.166328 0.106348
0.029642 -0.280433 -0.139993
0.155209 -0.226671 0.073832
0.143311 0.295072 -0.050641
-0.146411 0.277581 0.105230
-0.097640 0.050634 0.002355
-0.075900 0.339620 0.019360
-0.000486 -0.336828 -0.202192
-0.102515 0.075049 -0.170235
-0.033569 -0.264407 0.259476
-0.151768 0.322669 0.044546
0.304461 0.002966 0.034169
0.098952 0.299068 -0.164136
0.300080 0.081725 -0.094757
0.003828 0.217921 0.168696
-0.223767 0.233109 0.118218
0.258719 -0.114466 0.102816
0.279885 0.137478 -0.021474
-0.003084 0.245718 -0.283275
-0.044245 -0.314938 -0.201420
0.157679 0.285569 -0.053991
-0.247957 0.181598 0.024992
0.248256 -0.125722 -0.137811
0.015660 -0.097426 0.120982
-0.016816 -0.202234 -0.190198
0.303739 -0.061185 -0.052027
0.233301 -0.126277 -0.176493
0.120817 0.081524 -0.297864
-0.268339 0.140716 -0.302393
0.180050 0.268109 -0.047635
-0.039687 -0.254125 0.299693
0.311546 0.037501 0.000613
-0.071624 0.177929 0.194024
0.021402 -0.018965 0.219442
-0.018669 -0.205907 -0.141996
-0.134555 0.099967 -0.290644
-0.115864 0.207452 0.156569
0.229044 0.219652 -0.054782
0.224641 -0.011730 0.157974
-0.041763 -0.166195 0.197691
0.041241 -0.209543 -0.224599
0.038349 -0.168713 0.179632
-0.032409 -0.197063 0.193569
0.069882 0.179209 -0.287557
-0.155886 0.194569 0.134514
-0.329333 0.220998 0.128731
0.005086 0.074953 -0.346046
0.146667 -0.034435 -0.278563
-0.164445 0.290504 -0.146026
-0.022010 0.286307 -0.251791
0.121710 0.289284 0.023891
0.164821 -0.253815 0.017043
-0.301171 0.126891 -0.312221
0.113232 0.189975 -0.268192
-0.154735 0.092483 -0.210662
0.095190 0.053741 0.222654
-0.143567 0.365547 -0.021351
0.076419 -0.129447 0.138771
0.259225 0.131103 -0.138054
-0.025900 -0.053451 0.020898
-0.186624 0.072589 -0.268475
0.051508 -0.160567 0.242555
0.306323 0.067635 -0.093029
0.064532 0.272316 -0.235921
0.134374 -0.196438 0.001718
0.284464 0.094228 0.054476
-0.030040 -0.050222 -0.019869
0.130324 -0.195157 0.038786
0.347143 -0.269007 0.005151
-0.157796 0.366079 -0.041281
-0.133809 0.099936 -0.178666
-0.035232 -0.012340 -0.234816
0.016125 0.206988 -0.297716
0.032021 0.328805 0.010418
-0.210740 0.078367 -0.308409
0.079686 0.189163 -0.278924
0.092064 0.207137 0.152338
-0.275387 0.233706 0.043741
0.046218 0.065736 0.231337
-0.303771 0.110751 -0.300849
0.229508 -0.098939 -0.196454
0.264475 -0.112747 0.095869
0.037664 -0.179357 0.241958
-0.179491 0.454732 -0.180101
0.015109 -0.084310 0.084277
0.257322 -0.073170 0.103484
0.099776 -0.015298 0.237821
-0.097592 0.142972 0.141249
0.081287 -0.062414 0.252239
0.151809 0.022962 0.209512
-0.006725 0.353318 -0.067100
0.210414 0.173494 0.106251
-0.256854 0.135497 -0.263850
-0.068368 0.315699 0.064068
-0.015351 -0.066372 -0.000549
0.138688 0.026913 -0.291457
0.152303 0.147960 0.164077
0.061471 -0.204993 -0.221626
0.110744 -0.126799 0.099735
0.000068 -0.179477 0.172799
0.296618 -0.351665 -0.000697
0.161412 0.271018 0.008278
-0.151965 0.162764 -0.049544
0.215766 -0.148075 -0.182563
0.022832 0.224982 0.158373
0.000756 -0.084529 -0.028405
-0.117681 0.312952 -0.246614
0.301095 0.059344 -0.117605
0.155031 0.023047 -0.281792
0.063172 0.037808 -0.323701
0.212108 -0.256864 -0.051341
0.227887 -0.153818 -0.147795
0.051687 -0.116907 0.113992
0.084917 -0.180750 -0.082669
-0.136800 0.123297 0.020548
0.270064 0.156523 -0.057381
-0.053407 -0.259357 -0.164630
0.137887 0.023083 -0.291556
0.315547 0.042642 -0.032676
-0.004144 0.249218 0.143528
-0.227114 0.160450 -0.262709
-0.280366 0.158779 0.042554
-0.112356 0.084053 -0.201333
-0.265980 0.148669 0.076843
0.070931 -0.127407 -0.247600
-0.124641 0.107056 0.023029
0.102343 0.318414 -0.039403
-0.095784 0.039282 -0.043925
-0.227398 0.194763 0.019610
0.041464 -0.237314 -0.116453
-0.253569 0.248135 0.060182
0.122305 -0.023122 -0.296086
-0.146676 0.196860 -0.294433
0.146104 -0.092564 0.197336
-0.165723 0.094970 -0.218393
-0.233502 0.073572 -0.252334
0.197287 -0.264462 0.068222
0.031557 0.151507 -0.315275
-0.245222 0.178564 0.026040
-0.146572 0.291855 0.091367
-0.182168 0.280900 0.030760
-0.117771 0.091036 -0.012436
0.056504 -0.019505 0.241516
-0.249819 0.221984 0.028977
0.071216 0.103319 0.213147
-0.199946 0.191622 0.011650
-0.063568 0.334815 -0.195064
0.070357 -0.245744 -0.184349
-0.140209 0.159866 0.114091
0.036026 -0.290351 -0.177077
-0.179800 0.279670 0.024932
0.319056 -0.275149 -0.038206
-0.030938 -0.051405 -0.094339
0.284930 -0.335893 0.113716
0.180740 0.255570 0.007186
0.117170 -0.158888 0.078869
-0.132861 0.361137 -0.008356
-0.004926 -0.101082 -0.140099
0.165026 -0.051875 -0.266736
-0.036471 0.346623 -0.016693
-0.003466 -0.159661 -0.131078
0.231230 -0.280175 -0.045232
-0.025795 0.291501 -0.246772
0.041223 -0.149581 -0.223368
0.299600 -0.289729 -0.037116
0.230199 0.137700 0.109326
0.041475 -0.026954 -0.328733
0.251127 -0.342672 -0.003278
-0.005811 -0.093157 -0.086491
-0.200928 0.197900 0.009368
-0.053509 -0.012743 -0.113787
-0.332649 0.181523 0.146525
-0.031054 -0.052638 -0.071018
0.041662 -0.142951 -0.224074
0.187919 -0.052563 0.184045
-0.016815 -0.087879 0.155374
0.017360 0.292791 -0.229328
0.279760 0.137142 -0.032580
0.186584 -0.217407 0.126533
0.170987 -0.161800 0.126522
0.032400 -0.105441 0.010557
0.181685 -0.181053 0.126958
-0.038853 -0.026572 -0.157756
-0.341117 0.204733 0.054419
-0.002845 -0.083903 -0.044703
-0.104112 0.385950 -0.093185
0.058205 -0.102819 -0.256770
-0.228387 0.065772 -0.262299
0.105786 0.263005 -0.213091
-0.069121 0.020194 -0.203492
-0.104169 0.205732 0.168828
-0.172862 0.353230 -0.194678
-0.084085 0.364880 -0.051418
0.056073 -0.110345 -0.247238
0.259890 -0.119676 0.105121
0.101877 0.219916 0.139160
-0.037734 -0.255187 0.236543
0.134363 0.077228 -0.292221
-0.188290 0.269434 0.083978
-0.280246 0.091969 -0.271092
-0.095185 0.106900 0.118266
0.044091 -0.114891 -0.009692
-0.027412 0.360102 -0.100944
0.035183 0.150751 0.201732
0.137823 0.103901 0.190751
-0.099636 0.383565 -0.087805
0.283951 -0.063488 0.065397
-0.022069 0.357680 -0.113894
0.122670 0.004165 -0.296927
-0.170589 0.189567 -0.009102
-0.191646 0.180528 0.011953
0.336141 -0.227865 -0.037483
0.194824 0.048786 -0.260436
0.349819 -0.340121 0.094230
0.191543 -0.019983 -0.251463
0.100870 -0.197777 -0.208652
0.018343 -0.071348 -0.250913
-0.169259 0.183680 0.129827
0.145539 0.137185 -0.276940
0.222012 0.090323 -0.228543
-0.005845 -0.185620 -0.192937
-0.019729 0.317037 0.049368
0.157481 0.114830 0.174272
0.037086 -0.110666 0.266964
-0.198921 0.153163 -0.216852
0.022636 -0.184137 -0.103924
-0.068592 0.004412 -0.098804
0.065670 0.313474 -0.162007
-0.038370 0.150676 -0.345992
0.112137 0.057303 -0.303712
0.246498 0.180936 0.014800
0.124683 -0.123506 0.146865
0.023241 -0.084385 -0.232970
0.251816 0.181262 -0.062108
0.332624 -0.218038 0.096427
0.106257 -0.027720 -0.302829
0.245204 -0.146889 -0.126593
0.204218 -0.118390 0.141557
0.169670 -0.265288 0.043487
0.067253 -0.249159 -0.183685
0.182114 0.024062 0.189289
0.219449 -0.230361 0.153985
-0.084171 0.079146 0.117253
-0.054971 0.099469 0.180133
0.263188 -0.087185 -0.157244
-0.158175 0.227681 -0.217100
-0.199589 0.352302 -0.115795
0.221918 -0.135509 -0.186709
-0.165870 0.213104 -0.256752
0.023368 -0.319481 -0.180626
-0.057517 -0.000604 -0.189836
0.260417 0.080618 -0.178413
0.119426 0.274287 0.058062
0.193145 -0.184934 0.132771
-0.013890 -0.048337 -0.204164
-0.044200 0.068638 -0.300217
0.340866 -0.293238 -0.000295
0.100303 0.233007 -0.235260
-0.036144 0.353183 -0.042465
0.218124 0.188134 -0.160780
-0.355024 0.217847 0.119455
0.266893 0.106166 -0.148864
-0.034738 -0.130018 0.193667
0.013845 0.277465 0.106311
-0.167265 0.152857 0.018416
0.230754 -0.066398 -0.206528
0.142280 0.269935 -0.166151
-0.117898 0.373799 -0.172726
-0.116829 0.075753 -0.077993
0.261349 0.117155 0.085839
0.138524 -0.031933 -0.287171
0.198879 -0.194717 -0.115439
0.137261 -0.152615 -0.241049
-0.220918 0.062167 -0.303518
0.306977 0.046367 -0.106869
-0.080300 0.015017 -0.058290
-0.243675 0.152839 0.051210
0.102055 0.060438 -0.307346
0.228666 0.005878 -0.227643
0.157095 0.170760 -0.255253
0.249465 0.112251 0.104099
-0.229217 0.247850 0.037430
-0.110587 0.087757 -0.171523
-0.106003 0.364436 -0.157296
-0.094121 0.155124 -0.318848
0.342572 -0.247749 0.094194
-0.036541 0.242413 0.157961
0.269745 -0.340184 -0.018210
0.181872 0.266427 -0.045230
0.127863 -0.186801 0.011223
0.220814 0.176311 0.088401
-0.004733 -0.335308 -0.136904
-0.035726 -0.026426 0.079559
-0.051881 0.174527 -0.340508
-0.209557 0.254309 0.029202
-0.024858 0.171820 -0.332087
-0.031971 -0.331612 -0.162863
0.076726 -0.234785 -0.139900
0.178671 -0.260060 -0.016301
-0.249972 0.194017 0.121591
-0.275090 0.067382 -0.345406
-0.105660 0.071432 0.018035
0.157453 -0.051171 -0.271148
-0.326246 0.151353 0.123218
0.319545 -0.187945 0.090850
0.207663 0.146232 -0.218153
0.214159 0.049784 -0.244564
-0.075826 -0.199894 0.238459
0.144128 0.255261 -0.188220
0.108784 -0.146197 0.076753
-0.147029 0.225794 -0.141175
0.275192 -0.307249 0.064878
0.029342 -0.302467 -0.178459
0.144526 -0.193775 -0.037287
0.216464 0.149687 0.117229
0.193159 0.246497 -0.127062
0.217949 0.183706 0.084962
-0.128223 0.273248 -0.254649
0.291406 0.026116 -0.145173
0.028436 -0.127361 0.270841
0.111692 -0.126107 0.180245
0.311799 -0.028144 -0.001789
0.049580 0.252956 -0.258443
-0.089691 -0.179659 0.276568
0.055563 -0.234852 -0.120512
0.360823 -0.307966 0.074831
-0.007116 0.211910 -0.303052
0.195236 0.257228 -0.078256
0.142769 -0.199740 -0.020869
-0.251824 0.164957 0.109262
-0.169048 0.247099 -0.020508
0.282860 0.131852 -0.060383
0.268281 -0.346500 0.057631
0.090151 0.051241 0.225013
0.016764 -0.207109 -0.220376
0.292135 -0.114331 0.042133
-0.032221 -0.144453 0.266122
0.167186 0.043422 0.197575
0.152399 -0.215723 0.081183
0.093564 -0.049034 -0.305488
-0.057124 0.105222 -0.307605
0.182494 -0.283065 0.033907
-0.074942 0.074451 0.130971
0.230780 -0.116852 0.125471
0.266438 -0.042021 -0.170082
0.250913 -0.120492 0.113180
0.165569 0.278694 -0.041539
0.328992 -0.316489 0.143466
0.138715 -0.049474 0.224157
0.198462 -0.161044 -0.193252
0.071808 -0.149883 0.212566
-0.012094 -0.045470 0.121409
0.331256 -0.337928 0.087075
-0.173549 0.212766 0.134293
0.252654 -0.085312 -0.173004
-0.017924 -0.201832 -0.186648
0.231288 -0.184086 -0.088127
-0.159061 0.193998 -0.291025
0.171355 -0.221976 -0.042052
0.132083 0.129972 0.182698
-0.255103 0.047165 -0.289531
-0.149803 0.246132 -0.171173
0.169840 -0.171433 0.123376
-0.062741 -0.176903 0.288627
-0.075314 -0.196604 0.239379
0.081737 -0.133855 0.156396
0.292929 -0.359391 0.054881
0.006160 -0.329194 -0.140207
0.030562 -0.185732 0.207634
-0.146978 0.408680 -0.123763
0.175491 -0.009214 -0.259908
0.033133 0.336521 -0.137789
0.284048 0.130765 -0.029452
0.272569 0.150965 -0.055105
0.256322 0.065606 -0.188836
0.252389 -0.153446 0.133695
-0.295328 0.126750 -0.291743
-0.163304 0.165455 0.117066
-0.284042 0.145194 0.076957
-0.167526 0.345306 -0.038233
-0.158364 0.124316 -0.307482
0.229562 0.041391 -0.226511
0.126418 -0.191664 -0.203961
-0.071029 0.361605 -0.145043
0.066556 -0.149898 0.179328
-0.048523 -0.150892 0.252142
0.159307 0.025852 0.205150
0.157010 0.248929 -0.184483
-0.110055 0.084902 0.029727
0.319192 -0.191985 0.012394
0.343233 -0.298171 0.011286
0.137103 0.250616 -0.202803
0.310884 0.043073 0.007164
-0.087371 -0.209019 0.296241
-0.261416 0.130575 -0.324430
-0.203399 0.118951 -0.313685
-0.145899 0.293110 -0.215883
0.069818 0.334026 -0.084289
0.265979 0.039511 0.107563
-0.024805 -0.212574 0.311599
0.346050 -0.262993 0.056472
-0.052477 0.112955 0.192236
0.208613 0.046221 0.168834
0.360724 -0.330889 0.042146
-0.022279 -0.037796 -0.206791
0.267498 -0.270653 0.175679
0.061128 0.336702 -0.100508
0.087637 0.317432 -0.106833
-0.293813 0.133881 -0.310852
0.141706 0.136651 -0.278843
0.246295 -0.310043 0.121140
0.036872 -0.168289 -0.221970
-0.203895 0.210933 0.129617
0.210098 0.051749 0.166134
-0.238479 0.140313 -0.303913
0.203378 -0.195916 -0.101782
-0.224284 0.053849 -0.291496
0.271322 -0.228594 0.178476
-0.344182 0.178216 0.082223
0.287244 -0.047720 0.063978
-0.126606 0.089633 -0.199140
-0.246720 0.130594 -0.318316
-0.014558 0.239451 0.155490
0.004237 -0.222496 0.252643
0.205350 -0.150111 -0.191999
-0.082755 0.027198 0.025491
-0.094585 0.243881 0.156189
0.117785 -0.164536 0.072614
-0.269364 0.151972 0.088752
-0.171808 0.345341 -0.062666
0.173658 0.228399 -0.188032
-0.023429 0.049051 -0.335948
0.024574 -0.182375 0.264467
-0.211608 0.153568 0.092208
0.034052 0.061875 -0.333779
-0.019902 -0.198725 -0.164097
-0.119035 0.280513 -0.275952
-0.213460 0.415072 -0.139115
0.340802 -0.339760 0.013151
0.150168 -0.228434 0.039384
-0.079389 0.026348 0.041191
0.170781 0.141416 -0.258472
0.291070 -0.287426 0.164119
0.102616 -0.084287 -0.295920
0.292381 0.111048 -0.022138
0.217326 -0.049205 0.152058
0.112427 0.173496 -0.276323
0.300672 -0.136023 0.048616
0.303068 0.080613 -0.042470
0.227922 0.180052 0.071641
-0.213453 0.082318 -0.313056
0.277344 0.139955 0.002584
-0.055939 -0.281987 -0.200991
-0.167469 0.302651 0.016482
0.226123 0.169977 -0.172144
0.018004 -0.088475 0.071375
0.258919 -0.048088 0.100058
0.074677 0.148094 -0.293234
0.000388 -0.161046 0.161924
-0.033595 0.201778 -0.319730
-0.096966 0.047981 -0.124614
-0.008095 0.202187 -0.309140
0.112474 -0.096009 0.229622
0.285214 0.119971 0.009704
0.160998 0.274555 -0.018443
-0.056428 0.353456 -0.031368
0.248529 -0.158090 -0.105709
-0.073644 -0.230233 0.270274
-0.022844 0.214579 -0.308394
-0.046358 0.188542 -0.331355
0.196782 0.164287 0.126946
-0.122958 0.086544 -0.206438
-0.119368 0.176093 -0.312481
-0.073444 0.006607 -0.064005
0.161750 0.232520 -0.197695
-0.201007 0.349153 -0.149449
-0.054473 0.250345 0.151609
-0.070747 0.013514 0.045557
0.348858 -0.311294 0.121319
0.168490 0.159626 0.145908
0.145994 -0.114930 0.155402
0.355935 -0.295905 0.089371
-0.030926 -0.231440 0.212154
0.261474 0.172738 -0.031499
0.106319 -0.153685 0.062074
0.158560 -0.182856 -0.203440
0.311100 -0.156391 0.046924
0.036223 0.302695 -0.199935
-0.163863 0.237117 -0.047034
0.128148 0.271336 0.055736
-0.153243 0.214987 -0.084516
0.093176 -0.181903 -0.223380
0.081426 0.178493 0.173517
0.081946 0.282763 -0.203040
0.059478 -0.126419 -0.012529
0.053780 -0.170582 -0.086139
-0.178337 0.263142 0.103528
0.289675 -0.182540 0.161328
0.286562 -0.349695 0.086319
-0.126074 0.095618 -0.092555
-0.203774 0.353114 -0.130570
0.286872 -0.357006 0.048953
-0.168466 0.320272 -0.010607
0.176669 0.139180 0.152269
0.299896 0.031240 0.051313
0.027551 0.044005 0.227397
-0.172349 0.416925 -0.192606
-0.151515 0.368463 -0.037426
0.198051 -0.176922 -0.186846
0.316902 0.028586 -0.027960
0.085555 -0.152600 -0.041770
-0.177501 0.166305 0.117475
-0.065294 -0.222404 0.232358
-0.126222 0.134864 -0.307389
-0.000810 0.081520 -0.347768
0.309253 -0.040760 -0.046271
0.297418 0.050611 -0.128793
0.109792 -0.170368 -0.050008
-0.077335 -0.205720 0.304479
-0.055766 0.004004 -0.214115
-0.145843 0.141218 -0.043351
0.261822 -0.060148 -0.171809
-0.035199 0.141880 0.215248
-0.124031 0.348819 0.018674
-0.055610 0.351916 -0.027156
-0.120573 0.088200 -0.197563
-0.151936 0.222706 -0.094837
0.244785 0.047094 0.132083
0.175259 0.216208 -0.199660
-0.214921 0.386159 -0.148790
-0.011209 -0.075090 -0.039073
-0.055004 0.147266 0.202261
-0.148552 0.189625 -0.102464
-0.151632 0.215692 -0.093953
0.179342 -0.278677 0.022270
0.267280 0.004514 0.105710
0.119447 -0.178337 -0.061542
-0.037133 -0.041991 -0.033536
-0.122150 0.385484 -0.151864
-0.250692 0.042807 -0.301423
0.169965 0.022617 -0.267532
-0.002282 -0.227321 -0.122146
0.063321 -0.113451 0.067409
-0.012388 -0.068213 -0.140780
-0.140916 0.364155 -0.192563
0.189148 0.037913 0.183011
-0.168427 0.293257 0.047884
0.249752 -0.255687 -0.055718
-0.285078 0.183028 0.124672
0.234350 0.196355 0.014724
0.003900 -0.115189 -0.094790
0.114185 -0.169253 -0.031144
0.276788 -0.107385 -0.102940
0.315908 0.029193 -0.021371
-0.153517 0.305505 0.062349
0.180406 0.249717 0.031910
0.030323 0.324615 -0.170821
0.125907 0.218894 -0.242689
-0.016416 0.000170 -0.289245
0.171230 -0.103166 -0.249825
0.352113 -0.318582 0.111734
0.159201 0.139952 0.163653
0.247482 -0.078536 -0.180942
0.072335 -0.235945 -0.197795
0.055620 0.193838 -0.289254
0.190515 0.171594 -0.222183
0.133393 -0.003915 -0.291546
0.054593 -0.120945 0.122054
0.018841 -0.327223 -0.153504
0.057208 0.300032 -0.202011
0.161569 0.253700 -0.171054
0.046035 -0.086715 0.261978
0.314630 -0.236494 0.166028
0.223681 -0.141545 0.134963
-0.073221 0.356580 -0.035217
0.238400 0.003775 -0.214153
-0.163606 0.284756 -0.085292
0.317381 -0.204035 0.164942
-0.047389 -0.184116 0.299299
-0.073403 0.047528 0.107943
0.291116 0.118326 -0.041678
0.061701 -0.125715 0.004390
0.280724 0.119681 0.042031
-0.208473 0.425384 -0.135453
0.036140 0.162586 -0.309064
-0.191997 0.178151 -0.285863
0.086725 -0.149977 -0.031879
0.023966 -0.171423 -0.214729
0.220042 -0.109378 0.134045
0.311269 -0.043897 -0.006820
0.015252 -0.082902 0.255710
0.311082 -0.007337 -0.067303
0.318272 -0.305463 0.156079
-0.069132 0.035750 0.099868
-0.120825 0.286820 0.115196
0.079078 -0.136238 0.033702
-0.038539 0.088472 -0.343990
-0.045598 0.044417 0.152027
0.172143 -0.199168 -0.089418
0.345029 -0.279010 -0.010631
-0.361694 0.229850 0.087454
-0.178754 0.194605 -0.001022
0.174523 -0.059897 0.193170
0.107992 0.307838 -0.099662
0.202808 -0.175455 -0.184679
-0.045521 -0.193537 0.310855
0.010835 0.284200 -0.245479
-0.068845 0.000814 -0.001126
-0.021719 -0.117536 0.253672
0.069170 -0.033798 -0.318383
0.039943 -0.102266 0.081338
-0.292640 0.146620 0.062383
0.202377 -0.159548 -0.187095
0.082875 -0.116515 -0.263892
0.216952 -0.173677 0.145346
-0.345646 0.179121 0.128652
0.054285 0.313125 -0.174197
-0.141199 0.128658 0.067236
0.286359 0.019698 0.066594
-0.134729 0.120606 0.017611
0.086587 -0.154333 -0.241356
0.196739 -0.006979 0.180749
0.033727 0.337451 -0.020351
0.145118 0.076427 -0.285007
-0.004419 -0.181246 0.172610
0.032520 -0.097607 0.059440
-0.138355 0.122850 -0.044168
0.290572 0.039127 0.064040
-0.055162 -0.018188 -0.010604
0.122781 0.281467 -0.168634
0.202541 0.115928 -0.243223
0.205189 0.056226 0.168394
-0.034736 0.262808 -0.279327
-0.045840 0.351616 -0.029368
-0.273666 0.053981 -0.330805
-0.125738 0.118068 -0.299836
0.025209 0.193346 0.178625
0.025532 -0.162190 -0.213648
-0.162378 0.091144 -0.224345
0.235036 0.048285 -0.212919
0.065896 0.299262 0.031973
0.214282 0.235486 -0.103176
-0.144777 0.274709 -0.209395
-0.055304 -0.008775 -0.122424
0.267421 -0.223814 0.177537
0.322456 -0.338037 0.087877
-0.133166 0.328621 -0.226963
-0.139277 0.269228 0.120436
0.070660 -0.125929 0.131325
-0.043919 -0.182350 0.199661
-0.199677 0.455996 -0.193093
-0.245950 0.154269 0.048560
-0.052396 0.351480 -0.026286
-0.202990 0.180301 0.122106
-0.170390 0.207551 0.134372
0.033460 -0.098439 0.055611
-0.091078 0.037778 0.002002
0.205024 -0.093231 0.150990
0.186309 0.185614 -0.212965
0.058210 -0.101180 0.261198
0.329546 -0.211674 0.025952
0.138539 -0.203862 0.002405
0.284821 -0.040713 0.072103
-0.040528 -0.003128 -0.238349
0.302919 0.036992 0.042950
0.076036 -0.138025 0.002239
0.209187 0.097258 0.141660
-0.248659 0.122285 -0.247986
0.016895 -0.284575 -0.209123
-0.051821 -0.219048 0.212334
-0.077703 0.252357 -0.301964
-0.171187 0.265351 -0.008413
0.272287 -0.324148 0.126220
0.238336 0.069728 -0.215100
-0.221868 0.163945 -0.271054
0.081824 0.156212 -0.287653
-0.123161 0.277206 -0.266918
-0.193649 0.077969 -0.247138
-0.217079 0.146473 -0.232443
0.126407 0.298674 -0.099705
0.273290 0.045054 -0.170843
0.259555 0.165486 0.011279
0.022209 -0.097693 0.028719
0.025917 -0.126270 0.135010
0.203556 0.208999 -0.168368
0.080947 -0.144405 0.181604
-0.099229 0.328792 0.045377
-0.157402 0.270169 0.104851
0.088420 0.311639 -0.140925
0.305392 -0.035018 -0.076106
-0.101502 0.100523 0.100210
0.118675 0.139502 0.183445
-0.146316 0.171807 -0.087294
0.031586 -0.128684 0.269945
0.036354 0.053705 -0.332849
0.304856 0.071877 -0.027231
0.328474 -0.303107 0.153620
-0.002941 -0.063594 0.097958
0.208766 -0.171834 -0.178783
0.223699 0.224713 -0.097497
0.064723 -0.242670 -0.135968
0.250990 -0.016209 -0.195548
0.022806 -0.153864 0.274039
0.353231 -0.285583 0.062795
0.281321 0.082902 0.072915
-0.078792 -0.217837 0.253261
-0.159729 0.338195 -0.205543
0.288490 -0.058719 -0.112954
0.107671 0.238662 -0.234871
0.237357 -0.000008 -0.213400
0.023761 -0.194406 -0.106527
0.032850 0.279411 -0.243508
0.233468 -0.170908 -0.122292
-0.268482 0.238721 0.047166
-0.034982 -0.327271 -0.168919
-0.066652 0.297872 -0.254070
-0.052428 0.278339 0.113294
-0.164748 0.283932 -0.116715
0.224698 -0.119229 -0.193669
0.282139 0.108925 -0.087046
0.351755 -0.292188 0.049139
-0.348667 0.207472 0.127759
0.033340 -0.106901 -0.000529
-0.157942 0.101026 -0.199753
0.320241 -0.260292 -0.048258
0.144762 0.085107 0.191092
-0.124319 0.102391 -0.005933
-0.220168 0.089678 -0.235887
0.300076 0.020713 0.051901
0.091459 -0.230327 -0.173609
-0.009321 -0.186166 -0.135651
0.033764 0.114691 0.218081
0.076179 -0.089491 -0.296684
-0.238008 0.153116 0.089733
-0.228108 0.209465 0.125066
-0.127238 0.367206 -0.025664
0.195514 -0.180127 -0.184308
-0.200497 0.262348 0.089108
0.314529 -0.337299 -0.011966
-0.204418 0.165930 0.112043
0.016971 0.348612 -0.064007
-0.100547 0.107188 0.108492
-0.345076 0.185367 0.138700
-0.164710 0.305741 -0.062705
0.000327 -0.081390 0.246073
-0.011343 -0.189517 0.181602
0.204506 -0.055741 0.167846
0.200848 0.251876 -0.082978
0.053731 0.213964 0.155388
0.144733 0.215522 -0.231658
0.036780 0.191930 0.174524
0.344689 -0.306522 0.014793
0.158209 0.047871 -0.280841
0.060031 -0.260012 -0.166561
-0.149179 0.231290 -0.248760
-0.133395 0.384770 -0.167683
0.099889 -0.152016 -0.242942
-0.167737 0.293639 -0.026596
0.059707 -0.082978 -0.295135
-0.002263 0.338021 -0.004884
-0.054604 -0.280008 -0.164649
-0.075651 0.010466 -0.071470
-0.324110 0.236979 0.090356
0.136997 -0.178263 0.093630
-0.006561 -0.244415 0.281393
0.097604 -0.221718 -0.184591
0.093071 -0.219589 -0.133823
0.258204 0.093009 -0.174077
0.102223 -0.183703 -0.219725
0.211451 0.231041 -0.123225
0.179887 0.207059 0.098920
0.242484 0.074077 0.129912
-0.022334 -0.077241 0.194353
-0.169702 0.077994 -0.264479
-0.109346 0.180726 0.152784
0.214139 -0.187861 -0.114086
0.193513 0.223412 0.057250
0.098891 0.306122 0.001574
-0.166437 0.430427 -0.135685
0.041667 -0.220903 -0.110535
-0.072923 0.010790 0.027124
0.122838 -0.177908 -0.057988
-0.088666 0.033577 -0.117358
0.271319 0.066205 0.089271
-0.222783 0.208419 0.017177
-0.077532 0.058722 -0.242872
0.301635 -0.073722 -0.042783
-0.072890 0.288395 -0.267395
0.082804 -0.109663 -0.274355
-0.301562 0.234220 0.095833
-0.192603 0.120985 -0.311864
0.100771 0.045504 -0.308336
-0.145799 0.166119 -0.081894
0.149339 -0.014996 -0.281180
0.005634 -0.076022 0.088752
0.270636 -0.132076 -0.081823
0.098951 0.311235 -0.114121
0.165093 -0.027827 -0.264129
0.032460 0.055200 0.231050
0.000651 0.128732 0.220979
0.252864 0.139147 -0.152690
0.034434 0.095554 -0.327803
-0.258384 0.161952 0.037670
0.286372 -0.240621 0.176431
0.158757 -0.216260 -0.026946
0.343192 -0.244818 0.070787
0.127581 0.303934 -0.038685
0.050405 -0.031923 -0.325935
-0.054221 0.063951 0.156104
-0.040006 0.058788 0.170775
0.164307 0.109752 0.171691
0.164974 0.097845 -0.275221
0.024940 -0.103332 -0.031053
-0.320467 0.149115 0.075846
0.000848 -0.193967 -0.119506
0.121440 -0.105940 -0.280113
-0.019025 -0.164479 0.172189
-0.134092 0.388811 -0.090241
-0.042971 -0.145924 0.255328
0.164144 -0.209348 0.104088
-0.128441 0.203893 -0.299720
-0.013825 -0.206912 0.299541
-0.062453 -0.238407 0.256850
0.266156 0.050477 0.106969
-0.160071 0.222843 -0.057482
-0.240279 0.249737 0.082323
-0.009683 -0.224412 0.297000
-0.147964 0.135901 0.020200
0.134460 0.246137 -0.211289
-0.353977 0.235967 0.088299
-0.025862 -0.344134 -0.174875
-0.034858 0.158721 -0.341446
0.026282 -0.310702 -0.160761
0.260530 -0.030181 0.107671
0.227609 -0.146562 -0.162917
-0.170612 0.095010 -0.221518
0.033562 0.125797 0.213682
0.216196 -0.261169 0.146384
0.269715 -0.098472 -0.124899
0.115738 -0.190724 -0.093975
0.312184 -0.037900 -0.012015
0.316952 0.018346 -0.050312
-0.191850 0.227548 0.004996
0.084969 -0.142736 -0.246968
-0.262720 0.172106 0.114944
-0.067478 0.109185 -0.297708
-0.039579 0.051862 -0.298757
-0.004928 -0.239443 0.245615
0.312346 -0.178091 0.091136
0.246783 -0.045934 0.118077
0.092055 0.282589 -0.198926
0.188835 0.044873 0.181381
0.204656 0.147945 -0.221852
0.234155 0.136991 -0.184696
0.021361 -0.327546 -0.175117
-0.031818 -0.337259 -0.194184
-0.343228 0.176369 0.095489
-0.061694 -0.009504 -0.006687
0.120108 0.063668 -0.299827
0.116399 -0.102671 0.218116
-0.150504 0.382798 -0.077310
-0.046377 -0.270045 -0.137700
0.157430 -0.201337 0.102892
-0.271374 0.221720 0.034167
-0.040194 -0.037916 -0.048589
0.016878 -0.150807 0.154127
0.282295 -0.177145 0.150350
0.112788 -0.145160 -0.247838
0.240536 -0.021515 0.138729
0.004881 -0.149025 -0.180270
0.307141 0.053259 -0.023667
-0.013281 -0.051845 0.191360
0.230499 0.071071 -0.224448
0.069363 -0.093670 -0.289548
-0.022754 0.334381 0.010659
-0.174979 0.363289 -0.075120
0.178711 -0.197135 -0.138336
0.243396 0.135635 0.095691
0.292480 -0.075526 0.028884
0.046412 -0.090748 -0.262978
0.147056 0.246692 -0.197654
-0.151174 0.162764 -0.142023
-0.150509 0.252488 -0.142654
-0.210487 0.250578 0.101971
0.268617 0.157402 -0.018733
-0.207891 0.167362 0.113272
-0.281559 0.107610 -0.272496
-0.130582 0.376190 -0.174014
-0.002179 0.336573 -0.165569
0.197273 -0.030742 0.178242
-0.161100 0.392617 -0.095384
0.257721 0.072912 0.114129
0.215666 0.205974 0.045297
0.266417 -0.245789 -0.055003
-0.185797 0.184805 -0.285727
-0.111432 0.078202 -0.222949
0.121290 0.291252 -0.147910
0.251968 -0.123807 0.114375
0.088382 0.327399 -0.059764
-0.206305 0.177553 0.120207
0.097262 0.154320 -0.288167
-0.121771 0.390602 -0.105101
0.147253 0.142603 0.169532
-0.158096 0.237639 0.130598
-0.037359 -0.036304 -0.117569
-0.052053 -0.005073 0.076690
0.018172 -0.094087 0.035070
0.111709 -0.175034 -0.059140
-0.120467 0.273648 -0.272926
0.008714 0.348849 -0.120110
-0.153993 0.257174 -0.125430
-0.088215 0.088581 0.117410
0.071680 0.331217 -0.038717
0.009919 -0.064009 0.241948
0.188294 0.194114 -0.202144
-0.130399 0.116902 0.062731
0.054296 0.143353 -0.305158
0.208121 -0.279257 -0.040374
0.220558 0.231096 -0.080403
0.022904 -0.174027 -0.100860
-0.200685 0.150600 0.083884
0.004108 -0.200230 -0.118229
-0.258964 0.042260 -0.314746
0.216692 -0.253979 -0.053398
0.191537 -0.237031 -0.050651
0.307759 -0.002404 -0.079282
-0.115253 0.163793 -0.313854
0.272340 -0.202613 -0.049237
0.122705 -0.092045 -0.284592
0.122503 0.274742 -0.181520
-0.076508 0.320746 0.057263
-0.300643 0.144643 0.075354
0.095793 -0.094244 0.241469
-0.101618 0.075013 0.050251
-0.017355 -0.061593 0.041855
0.076651 0.121223 0.204030
-0.123122 0.089820 -0.194898
0.063022 -0.174566 -0.085863
-0.264312 0.240871 0.048246
0.275337 0.008846 0.092544
0.272413 -0.113694 -0.108024
-0.073574 0.325594 -0.214866
-0.162936 0.274570 -0.057633
0.167042 0.006793 0.202355
0.102684 0.184981 0.164659
0.000386 -0.326577 -0.132614
0.204726 -0.275622 0.050956
0.036927 0.074006 0.231032
0.285708 0.070258 0.069952
0.087426 0.303405 0.023811
-0.162470 0.294205 0.058141
-0.019675 -0.044332 -0.188584
0.057234 0.306572 -0.187553
0.033700 0.170519 -0.307378
0.195918 -0.125458 0.141738
0.164542 0.025923 -0.274231
-0.093420 0.043314 0.008844
0.209793 -0.069401 -0.226480
-0.007825 0.089607 -0.349382
0.095455 -0.161777 -0.047650
0.236933 0.019854 -0.207534
0.281635 -0.112063 -0.042900
-0.036151 -0.318798 -0.213739
-0.047207 0.029680 0.135638
0.211604 0.240513 -0.052087
0.099061 0.058351 0.220216
0.094647 -0.044263 -0.306256
0.063506 0.153302 0.191770
-0.189843 0.339577 -0.105657
0.084865 0.022668 0.233336
0.021083 -0.069321 -0.261627
-0.246282 0.147068 -0.263280
-0.019637 -0.085931 0.162114
0.242539 0.111687 -0.188802
-0.158790 0.171060 0.123019
0.105104 -0.134471 -0.255677
-0.049120 0.336730 0.014831
0.343557 -0.246438 0.065072
0.013233 0.344230 -0.030718
0.228855 -0.128929 0.129299
0.159849 -0.083809 -0.266058
0.330175 -0.224305 0.136484
0.079374 -0.125377 0.129168
0.142913 -0.090633 0.202334
-0.135788 0.206720 -0.293601
0.315349 -0.217611 -0.039137
0.051287 -0.127748 0.134728
-0.201548 0.130754 -0.310603
-0.110124 0.340913 0.022099
-0.247893 0.055282 -0.276048
0.026662 -0.307114 -0.180751
0.273489 0.151814 -0.040646
-0.268242 0.053650 -0.292760
-0.140560 0.262764 -0.222724
0.169411 -0.175663 0.122207
-0.211856 0.148875 0.060068
0.180644 0.261990 -0.119157
-0.019095 -0.197595 -0.174429
0.190848 0.210128 -0.185310
0.144140 0.288624 -0.102346
0.253165 -0.271137 0.172676
0.264149 -0.352024 0.007114
-0.016970 -0.070604 -0.054029
-0.082523 0.095990 -0.280622
-0.062920 0.196207 -0.332926
0.192827 -0.155754 -0.202491
0.268178 0.152216 -0.078092
-0.303575 0.144408 0.104777
-0.096050 0.066899 0.057410
-0.361452 0.216246 0.102786
0.032716 0.312193 -0.188771
-0.021017 -0.174240 0.177509
-0.024233 0.315074 0.054032
0.305778 -0.147559 0.017890
0.300298 -0.257244 0.170876
0.022165 0.350063 -0.089269
-0.188306 0.156986 -0.303066
0.170759 0.269933 -0.118104
0.167166 0.278861 -0.055827
-0.154151 0.361776 -0.020773
0.294270 -0.301115 0.155007
0.278253 -0.115228 -0.084753
-0.132218 0.111489 -0.036423
0.185599 0.031055 0.185909
0.314411 0.040472 -0.070261
0.335841 -0.224731 0.093230
0.185338 -0.270740 -0.022854
-0.165258 0.438374 -0.178813
-0.156909 0.189411 -0.160028
-0.046478 -0.186518 0.201495
-0.103608 0.058311 -0.017160
0.314293 -0.264785 0.162352
-0.169176 0.297608 0.004373
-0.198458 0.264324 0.085244
-0.183161 0.196135 0.130684
0.085159 0.226887 0.139468
0.254794 -0.298348 0.043206
0.007883 -0.150542 -0.106903
0.328597 -0.305967 0.151878
0.215422 0.224205 -0.128871
0.111647 -0.161716 -0.235626
-0.012066 -0.020906 -0.265970
0.077646 0.246739 0.122599
0.078460 0.283562 -0.204691
0.067839 0.008041 -0.322814
0.131276 -0.121505 0.147140
0.225220 -0.324552 0.038625
0.198407 0.242541 -0.123398
0.165128 0.049735 0.197186
0.321705 -0.257296 -0.049453
0.118244 -0.173905 -0.018005
0.161935 -0.008153 -0.268829
0.134086 -0.087962 0.214288
0.288240 0.098149 -0.075552
0.278739 0.025233 0.082334
0.080945 -0.179882 -0.226211
0.211519 -0.292039 -0.034686
-0.114303 0.389286 -0.133297
0.312744 -0.163239 0.024595
0.305003 -0.142747 0.038277
0.313848 -0.364036 0.064334
0.223845 0.129799 0.119783
0.219352 -0.246950 0.155013
-0.052735 -0.285148 -0.164912
0.132249 0.233118 0.114264
-0.035678 0.250205 0.149599
-0.085752 0.047685 -0.187972
0.038851 -0.023627 -0.329692
0.092580 0.141240 -0.294140
-0.084210 0.237939 -0.314191
0.239521 0.064978 -0.213750
0.247694 0.072405 -0.202036
0.241629 -0.285134 0.040147
0.110404 -0.204800 -0.120476
-0.011327 -0.178735 0.173108
0.277059 -0.350968 0.059369
-0.105981 0.056230 -0.061269
0.030716 -0.147928 -0.082452
-0.081189 0.176628 -0.337605
-0.021317 -0.256687 0.235546
-0.262893 0.148805 0.079166
0.298025 -0.311702 -0.033416
-0.004430 -0.053888 0.218359
0.194742 -0.059828 0.175397
-0.283693 0.072216 -0.291633
-0.163478 0.300482 0.044744
-0.071448 0.357633 -0.045066
0.170257 -0.266007 0.039459
0.226407 -0.210892 -0.068507
0.019057 0.006076 -0.336682
0.250814 -0.056281 -0.188128
-0.194673 0.174234 -0.222545
-0.208011 0.149759 0.055267
-0.161224 0.372540 -0.065989
-0.266897 0.152650 0.051123
0.233135 0.154142 0.093162
-0.038917 -0.246895 0.228042
-0.264453 0.157541 0.097658
0.016091 0.081444 -0.340694
-0.001202 -0.131424 -0.131699
-0.144427 0.127998 -0.150412
0.063818 0.288977 0.060697
-0.058621 -0.269470 -0.177692
-0.037641 0.275299 0.117260
0.108475 -0.110728 0.218086
-0.072973 0.005106 -0.054823
-0.067171 0.002360 0.024197
-0.026590 0.354840 -0.131387
-0.096538 0.161702 0.156807
-0.008009 -0.185667 -0.189976
-0.045265 0.018484 -0.256790
0.255504 -0.302802 0.148547
-0.016154 -0.061759 0.193052
-0.203808 0.252478 0.104587
0.316960 -0.210224 0.170302
-0.096187 0.201806 -0.322513
0.347195 -0.305273 0.127683
0.347724 -0.273781 -0.012124
-0.092942 0.035820 -0.031964
-0.008217 0.341113 -0.158943
0.244532 -0.093794 0.114841
-0.004523 0.174164 -0.322399
-0.165973 0.291746 -0.038334
-0.055976 0.108113 -0.322583
0.305473 -0.032498 0.029769
0.164495 -0.198638 -0.076003
0.003388 -0.246002 -0.117985
0.179196 0.248364 -0.158036
-0.071386 0.004734 0.000897
-0.040251 -0.322253 -0.192805
-0.100568 0.118000 -0.297650
0.038207 0.321881 0.022719
-0.000223 0.122636 0.223653
0.250204 0.151153 -0.131099
-0.139290 0.126162 0.018594
0.191168 -0.278068 -0.027244
0.196248 -0.212020 -0.069525
0.261258 0.035667 0.114082
0.115639 -0.012181 -0.299924
-0.153545 0.080429 -0.259801
0.073974 0.211579 0.152989
0.262260 -0.071835 0.098206
-0.200558 0.164303 0.029156
-0.185164 0.277990 0.065840
-0.148034 0.180043 -0.301947
-0.064929 0.211709 0.183276
0.280198 -0.171835 -0.038574
-0.136358 0.119028 -0.032482
-0.170678 0.445548 -0.151010
0.096821 -0.048776 0.243912
-0.096074 0.239783 -0.313595
-0.087814 0.379496 -0.094357
0.085912 0.049112 -0.314224
0.094981 0.305043 -0.156714
-0.154045 0.201043 -0.069216
-0.018810 -0.328383 -0.218861
-0.147475 0.170323 -0.127491
-0.075175 0.049038 -0.233830
0.134722 -0.202105 -0.152689
0.293739 -0.330049 -0.022480
0.004290 -0.182169 -0.115987
-0.050336 0.042679 -0.269778
-0.077649 0.183193 0.189341
-0.117885 0.078369 -0.068609
0.182842 0.238844 0.054395
0.318892 -0.182427 0.080737
-0.088914 0.063515 0.082787
-0.156232 0.239060 -0.083097
0.300212 0.094509 0.008699
-0.198792 0.139523 -0.307919
-0.000890 -0.148615 -0.124020
-0.065800 0.038288 0.114068
0.150602 0.284901 -0.028325
-0.053961 0.113946 -0.339409
0.289553 -0.353101 -0.001843
0.004830 -0.082775 0.123804
0.049873 0.210650 -0.284349
0.277309 -0.006431 0.080424
-0.039987 -0.248913 0.231618
-0.180463 0.182489 0.127915
0.313008 -0.163046 0.059560
0.004066 -0.331161 -0.205788
0.319995 -0.178874 0.042256
0.097557 0.025678 -0.309129
0.216183 0.082992 0.147915
0.015776 -0.203521 0.231617
0.243409 0.111656 0.109123
0.198857 -0.216603 0.137058
-0.113077 0.326776 0.061421
0.266113 0.165530 -0.049298
0.020757 -0.091538 0.101095
-0.010490 0.353318 -0.123909
0.256388 0.174367 -0.067650
0.278687 0.028838 0.080360
-0.250806 0.086871 -0.342549
-0.038905 0.053406 0.168278
0.159520 -0.158516 -0.229455
-0.042076 -0.034165 0.010797
-0.168911 0.311977 -0.023197
0.237258 -0.338456 0.021382
0.188850 -0.139929 0.136916
-0.305654 0.109579 -0.315996
0.212537 -0.216588 0.147959
0.275539 0.144774 -0.033661
0.224817 -0.239994 -0.059280
0.204994 0.161861 -0.213734
0.005612 0.157615 0.206268
-0.002274 0.033300 0.201705
-0.018780 0.328562 0.025666
0.347224 -0.258737 0.080318
0.036009 0.314468 -0.181156
0.168179 0.191531 0.128595
-0.280873 0.101294 -0.342672
0.199426 -0.261909 0.075867
0.184563 0.179476 0.126751
-0.158604 0.227363 -0.220898
-0.089842 0.030957 -0.085720
-0.157797 0.373683 -0.193377
0.314149 -0.013512 -0.027142
0.096069 -0.224031 -0.148728
0.005819 -0.212596 0.228074
-0.115489 0.093090 0.025554
0.023134 0.241742 -0.276056
0.094042 -0.139899 0.059744
-0.125705 0.110533 0.044228
-0.165990 0.257822 -0.035879
0.222033 -0.209830 -0.069884
0.089700 -0.161620 -0.236934
-0.258558 0.150030 0.081306
0.010265 -0.198874 0.203829
0.241960 -0.292529 -0.042815
0.303062 -0.067535 -0.044391
0.248403 0.048378 0.128212
0.109176 0.120451 -0.296027
0.029953 -0.123205 0.131877
0.236420 -0.281645 -0.046270
0.272204 -0.212059 0.177103
0.095868 -0.113068 0.229716
0.324446 -0.193590 0.034534
0.268098 0.133697 -0.116310
0.129217 0.303714 -0.066323
0.247011 0.058204 -0.200802
0.272503 0.135912 -0.104540
0.121018 0.294303 -0.142909
0.004323 -0.193931 -0.116895
-0.028345 -0.004347 -0.262271
0.177976 -0.273966 0.013360
0.151906 0.194298 -0.244227
0.091402 -0.121705 0.087914
0.269181 0.145668 -0.088218
-0.051841 -0.284577 -0.160595
-0.140379 0.127927 0.006580
0.046549 -0.270735 -0.150479
-0.155532 0.289681 -0.181228
-0.233261 0.048080 -0.303421
-0.244831 0.147971 -0.291304
-0.016516 0.006197 -0.297685
0.277443 -0.092144 -0.117327
0.037212 -0.064000 0.251286
0.309366 -0.321595 0.134668
-0.101777 0.182311 0.164568
-0.004087 -0.074003 -0.162015
0.102240 0.039260 -0.307788
-0.118368 0.078357 -0.080612
-0.137224 0.123503 0.006643
0.036552 -0.100380 0.052527
0.287572 -0.178033 0.150735
-0.195722 0.398287 -0.108962
0.196937 -0.195143 -0.119304
0.052577 0.081136 -0.321527
-0.024157 0.327201 0.030407
0.247652 -0.168316 -0.082930
-0.184351 0.195747 -0.227783
0.165338 -0.170026 -0.215651
0.217645 -0.290429 0.099163
0.311636 -0.362577 0.036727
-0.003958 -0.021371 -0.285369
-0.067198 0.097711 -0.285676
0.002930 -0.092564 -0.168685
0.196908 -0.221176 -0.062774
0.232101 0.030184 0.149801
0.122627 -0.125821 0.132818
0.146788 -0.033378 0.218370
-0.097810 0.359752 -0.033075
0.283638 0.104690 -0.086027
-0.087688 -0.181125 0.258462
-0.076154 0.054938 -0.240215
-0.163292 0.141455 0.067384
-0.202743 0.454299 -0.147062
0.226769 -0.144663 0.135565
0.005362 0.028981 -0.343810
-0.029386 -0.011608 0.116359
-0.255194 0.153330 0.051558
0.154140 0.007131 0.210057
0.224998 -0.078346 -0.208695
0.059157 0.058769 -0.322263
0.232638 0.149172 0.098660
0.231672 0.162076 -0.168587
-0.259978 0.148851 0.066363
-0.152099 0.241801 -0.113410
-0.079037 0.093605 0.139834
0.182096 -0.271538 -0.013101
-0.005289 0.302465 0.072208
0.149289 -0.160318 -0.232023
-0.206977 0.414948 -0.182031
0.212233 -0.293761 0.040993
-0.128566 0.394044 -0.145875
0.138756 -0.132629 0.122618
0.246411 -0.102395 -0.171585
-0.078451 0.053103 0.103116
0.328217 -0.212178 0.130985
0.120208 0.271301 0.064023
-0.080476 0.034557 0.057274
-0.347048 0.182754 0.074956
0.248482 -0.040976 0.119922
0.137271 0.255573 0.077001
0.199477 0.012316 -0.253719
-0.012120 -0.042895 0.183246
0.300746 -0.019990 -0.091381
-0.136323 0.123338 -0.071951
-0.060419 0.337130 0.018472
0.307023 0.039182 0.031031
0.260677 -0.267471 -0.052979
0.142749 -0.160608 -0.233318
0.135380 -0.107968 0.186094
-0.147289 0.143916 -0.310674
-0.297640 0.143080 0.085875
0.213397 0.238873 -0.056919
0.188960 0.072807 -0.263419
0.197553 0.151460 -0.228635
-0.336865 0.165431 0.126320
-0.174041 0.370184 -0.195139
0.239649 -0.102834 -0.178212
-0.122301 0.095937 -0.026148
-0.352866 0.191286 0.082070
0.171349 -0.214723 -0.049759
0.174366 0.262797 -0.011669
-0.206083 0.462499 -0.172336
0.211901 -0.265277 0.068422
0.013446 -0.058533 -0.265564
0.210426 0.042921 0.168111
-0.153415 0.249918 -0.115389
-0.171518 0.183011 -0.295276
0.306246 -0.289740 -0.034280
0.019860 0.273082 0.112314
-0.291039 0.094875 -0.338927
-0.103188 0.292731 0.107615
0.243659 0.198104 -0.078896
0.133462 -0.099227 0.202415
-0.042285 -0.140030 0.209509
-0.017629 -0.020439 0.134512
0.068515 0.284848 -0.217043
0.258254 -0.148951 -0.095763
-0.072196 0.104924 -0.289677
-0.198245 0.425219 -0.191525
0.108878 0.277136 0.064403
0.245951 -0.310505 0.115307
0.150364 -0.171337 0.112070
-0.004427 0.004238 -0.322271
0.159224 0.280533 -0.032227
-0.160184 0.285723 -0.154331
0.247186 -0.016395 -0.200402
-0.090562 0.195269 0.180610
0.337582 -0.259755 0.116634
-0.029905 0.071683 0.194743
0.159928 -0.195131 -0.088320
-0.338263 0.224770 0.126708
0.343095 -0.350731 0.074462
0.169918 0.211694 0.106146
0.200420 0.251825 -0.060650
0.274039 -0.016722 0.085021
-0.228246 0.050450 -0.294179
-0.234475 0.166802 0.031098
0.276216 0.110613 -0.122615
0.269633 -0.033191 -0.163371
-0.026624 0.359615 -0.106482
0.007950 -0.159741 0.159312
-0.071595 0.003446 -0.015992
-0.034924 -0.328565 -0.172727
-0.253371 0.145388 -0.293582
0.050856 0.201658 0.164587
-0.075880 0.123564 0.166494
0.018948 -0.197330 0.258662
-0.208691 0.173893 -0.255281
0.095919 0.135282 0.192109
0.185279 0.222595 0.077766
-0.048065 0.354888 -0.146916
-0.142733 0.149898 -0.110490
-0.118750 0.099753 0.033297
0.084719 0.000105 -0.314505
-0.221576 0.244832 0.108275
0.178172 -0.254748 0.092275
-0.096372 0.320832 0.063406
0.305007 0.053269 0.033102
0.300295 -0.058849 -0.072023
0.028781 -0.093670 -0.229126
-0.131316 0.344982 0.029102
-0.073138 0.251991 -0.301264
0.178192 -0.150370 -0.223534
0.171612 -0.249448 0.087478
0.305738 0.058650 -0.104716
-0.203812 0.159033 0.103483
-0.048846 -0.024392 0.018042
-0.008086 -0.025430 0.172861
-0.063415 0.278191 -0.276677
0.211314 0.009745 0.170817
0.176755 0.271942 -0.072227
-0.064873 -0.006312 -0.022627
0.226066 -0.175022 0.148051
-0.009036 0.118784 0.224466
0.304787 -0.068632 -0.029070
-0.340080 0.239004 0.089135
0.209968 0.155818 -0.211015
0.032689 0.113132 -0.324601
-0.031229 -0.229204 0.317453
0.080083 -0.205242 -0.214283
0.164159 0.162813 0.146742
0.151145 0.021101 -0.284073
-0.154650 0.234166 -0.216843
-0.188392 0.365262 -0.092089
-0.110237 0.361150 -0.170630
0.268461 0.114386 0.074778
0.028275 0.335077 -0.145232
0.068730 0.027686 0.235804
0.218324 -0.061667 -0.221024
-0.354910 0.194355 0.086916
0.285698 -0.302961 -0.040785
0.260344 -0.061429 0.100977
-0.073570 0.021208 -0.174472
-0.331617 0.159327 0.103123
0.066698 0.333849 -0.107514
0.070778 -0.127231 0.041508
-0.047501 -0.165825 0.270898
-0.121836 0.314351 0.080920
-0.163370 0.272036 -0.053660
0.250646 0.157089 0.054266
-0.041417 0.284943 -0.263916
0.312531 -0.025601 0.007451
-0.177297 0.167183 -0.301137
-0.065153 0.007096 0.054096
0.343956 -0.250767 0.057083
-0.102333 0.278042 0.125139
0.342830 -0.272359 0.114217
-0.142463 0.148418 -0.082809
-0.001913 -0.112760 0.266104
-0.005722 -0.201078 0.291240
-0.030782 0.361070 -0.094804
0.004662 0.347625 -0.136234
-0.090827 -0.183038 0.270018
0.098663 -0.213049 -0.127673
0.253155 0.069702 0.120603
0.342039 -0.239239 0.075802
-0.161530 0.364919 -0.197206
-0.025857 0.096578 -0.352686
-0.333209 0.224784 0.053017
-0.169804 0.327098 -0.043654
-0.030727 -0.046353 0.046069
-0.173555 0.091605 -0.227814
-0.127882 0.364952 -0.187974
-0.035416 -0.324143 -0.160766
0.230141 -0.292068 0.133830
0.227210 0.137112 0.112896
-0.048529 0.264152 0.135525
-0.301119 0.107734 -0.297324
-0.078964 0.274487 -0.284292
-0.008447 -0.031502 -0.258489
-0.032654 0.358069 -0.125940
-0.195988 0.471839 -0.166029
0.340431 -0.292724 0.140872
0.020257 0.191366 -0.304143
0.197098 0.223233 0.044015
-0.006662 -0.127852 0.271339
0.261886 -0.329307 0.095009
-0.015831 0.015073 -0.309932
-0.143467 0.147172 -0.072455
-0.112351 0.242278 -0.296230
0.034598 0.330638 -0.149738
0.286622 -0.335566 -0.017484
-0.160500 0.097170 -0.207705
-0.025204 -0.240794 -0.134161
0.250529 0.144316 -0.151667
-0.170772 0.206226 -0.015935
-0.203092 0.469550 -0.168684
-0.040468 -0.035536 0.031393
0.123339 -0.209615 -0.167460
-0.058068 -0.014597 -0.010094
0.192960 -0.300657 0.013094
-0.010930 0.098280 0.222357
0.074124 0.007636 0.238542
0.102704 0.272355 0.080223
0.246224 0.192581 -0.067444
-0.093756 0.096759 -0.280722
-0.210374 0.200394 0.013539
-0.323641 0.149029 0.122111
0.131596 -0.159152 -0.236163
-0.260707 0.139039 -0.270630
-0.109755 0.376225 -0.056286
-0.248377 0.249186 0.059329
-0.297663 0.088996 -0.310918
0.284062 -0.285873 -0.044432
-0.171753 0.196399 -0.281665
0.056910 0.057467 0.231742
-0.185860 0.263730 0.018721
0.235173 0.158165 -0.165228
0.057438 -0.119331 0.033392
-0.292456 0.203135 0.121800
-0.163807 0.289645 -0.081974
0.288843 -0.104008 -0.023040
0.044014 -0.101476 -0.242628
-0.313764 0.193492 0.040013
0.013355 0.351566 -0.100328
-0.133412 0.118463 0.011587
0.329429 -0.244684 0.127382
-0.028216 -0.019299 -0.237021
-0.169508 0.231603 -0.024014
0.024252 0.334376 -0.001954
-0.010966 -0.054976 0.087233
0.298217 -0.263081 -0.047144
0.204737 -0.105948 0.145649
0.099229 0.062056 -0.308368
-0.021429 -0.001141 -0.277682
-0.128650 0.105127 -0.125624
0.119887 -0.105947 0.209369
0.175726 0.271344 -0.045516
0.196449 0.147886 -0.234019
0.086871 0.255032 -0.235925
0.198039 -0.092051 0.156229
0.194315 0.202651 0.084027
-0.008917 -0.248758 -0.216652
-0.004520 -0.176637 -0.186959
0.183613 0.252836 -0.002148
