-0.170342 -0.046640 0.111952
0.091193 0.271301 -0.113841
-0.086848 -0.050814 -0.234376
-0.182783 -0.063368 0.054181
0.116836 0.176597 0.246242
0.196877 -0.109385 0.234926
0.027141 -0.072242 0.295143
0.189203 0.372862 0.142478
0.125941 -0.140967 0.274840
-0.156001 -0.002970 0.121044
0.122264 0.155203 -0.254557
0.302065 0.081201 0.029822
-0.112062 0.079180 -0.218136
-0.140116 -0.266060 -0.128895
-0.101301 -0.330795 -0.052625
-0.164077 -0.105775 0.156764
-0.171639 0.173211 0.034098
0.243961 -0.068526 0.126730
0.202728 0.101628 -0.253518
-0.210300 0.075632 0.004429
-0.309576 -0.335212 -0.119130
0.082965 -0.159326 0.275767
-0.291531 -0.312558 -0.119871
0.030899 -0.212049 0.231105
0.138301 0.104470 0.289268
-0.004653 0.163370 -0.225386
0.206785 -0.002367 -0.244494
0.226271 0.093133 -0.231370
-0.178829 -0.082277 0.137461
-0.093367 0.147577 0.113730
-0.161121 -0.149714 0.106522
0.059582 0.032639 0.305100
-0.002445 0.068251 0.282446
-0.019169 0.283903 -0.061074
0.271369 0.037479 0.201332
0.214476 0.130179 -0.235486
0.016836 0.213555 -0.188868
0.136665 -0.084566 0.299956
-0.183405 -0.063164 -0.082696
0.034519 0.225233 0.194540
0.153451 0.398106 0.165942
0.174581 -0.130377 0.243214
0.022842 -0.171387 0.257221
0.286000 0.031311 0.108198
-0.000204 -0.034553 0.290815
-0.163588 -0.170343 -0.020213
0.265583 0.165613 0.180771
-0.287555 -0.302319 -0.128762
-0.026676 0.231027 0.155258
0.126688 0.242667 0.173295
0.271261 -0.003511 0.095517
0.249914 -0.049959 0.206030
-0.291408 -0.299948 -0.141161
0.239583 0.201408 0.183300
-0.075218 0.154311 -0.206111
-0.018075 0.284037 0.077866
-0.139515 -0.000335 0.183295
0.072283 0.215104 0.208895
0.144435 0.238299 0.177622
-0.066414 -0.043626 0.259987
-0.013315 -0.105412 -0.266060
-0.036759 0.213513 0.154774
0.089171 0.279333 -0.091716
0.186590 0.256115 0.131625
0.269626 0.029733 -0.115676
0.253276 0.244182 -0.079010
0.090715 -0.250422 0.172025
0.235562 -0.023120 -0.197384
0.070098 0.215903 -0.197888
-0.074853 0.201971 -0.083818
0.165910 0.273041 0.100010
0.233095 0.292911 0.148252
-0.080694 0.184751 -0.128063
0.220641 0.043843 -0.237305
-0.209494 0.114425 0.059737
0.265090 0.101958 -0.173960
0.092454 0.413998 0.159076
0.112687 0.438591 0.141342
-0.117116 -0.223618 0.001649
-0.113278 -0.191181 -0.115564
-0.137076 0.091169 -0.059456
-0.090477 0.144752 0.133726
-0.058915 0.110081 -0.233823
0.134379 0.291243 -0.027403
0.164419 0.271180 -0.102332
0.165887 0.392366 0.173597
-0.188862 0.096332 -0.013896
-0.190435 -0.091331 0.117440
-0.018222 -0.142667 -0.248392
0.148817 0.036472 -0.294384
-0.107241 -0.285644 -0.050705
0.138094 0.277261 -0.093537
-0.125138 0.063017 0.152185
-0.197923 -0.302691 -0.075266
-0.113930 -0.004151 -0.222934
0.291870 0.119964 -0.126905
0.154867 0.252362 -0.146705
-0.027489 0.285736 -0.045949
-0.079209 0.196322 -0.065375
0.007873 -0.245775 -0.175466
0.316655 0.137262 0.027170
0.296189 0.176113 -0.046318
-0.177638 -0.028404 -0.000866
0.217969 0.407222 0.155125
0.198908 -0.151760 0.002616
0.036090 0.313523 0.083769
0.219431 0.400817 0.162684
0.172505 0.230545 -0.176440
0.171672 0.232657 -0.173879
-0.113180 -0.225078 -0.024293
-0.076747 0.206840 -0.160622
0.159854 0.123057 0.278331
0.009845 -0.180269 0.246050
-0.030216 -0.237054 0.168768
0.182679 -0.133534 -0.202395
-0.131206 -0.167786 0.133043
0.000363 0.038540 0.288737
-0.007692 0.285010 -0.060378
0.179032 -0.196193 0.166644
0.159869 -0.142285 0.248096
-0.086975 -0.343055 -0.072863
0.302352 0.111506 -0.084224
0.261761 0.129035 -0.173574
0.098579 -0.028686 -0.305478
-0.027759 -0.276906 0.099278
-0.041125 0.044595 0.274256
0.140102 -0.118611 -0.251602
0.260200 -0.031996 0.135230
0.160303 -0.026835 -0.280418
-0.137189 -0.148322 -0.131912
-0.040311 0.231495 0.110806
0.099414 -0.281456 0.009219
0.010287 -0.085609 -0.281513
0.191730 -0.175154 0.169407
0.105112 0.148019 -0.258851
0.285286 0.188608 -0.079778
0.026685 0.215824 0.203967
-0.278174 -0.330334 -0.108000
0.085427 -0.121674 0.293870
0.107784 0.277092 -0.097902
0.189811 -0.033375 -0.252247
0.114141 -0.157953 -0.240525
0.054275 0.061619 0.297667
-0.044168 0.241923 -0.119472
0.076792 -0.004820 0.311354
-0.096845 -0.029616 0.246270
0.210780 0.254391 -0.115975
0.045150 -0.014933 0.305418
-0.008628 0.027632 0.287460
0.227957 0.260267 0.085391
-0.184046 -0.051568 -0.060121
-0.156331 0.070794 0.029584
-0.172072 0.119586 -0.013995
0.212611 -0.121681 -0.003408
0.200715 0.381217 0.117427
0.095423 -0.221263 0.216043
0.230611 0.388342 0.154636
0.041098 -0.289485 0.111015
0.076788 0.104348 0.287503
0.200055 -0.094622 0.242093
-0.324353 -0.358764 -0.147388
-0.122930 0.113481 -0.094697
0.228317 0.251302 0.111559
0.079142 0.291048 -0.046532
0.152344 -0.183138 -0.190955
-0.160297 -0.268391 -0.132667
-0.190124 -0.142270 0.008346
-0.214861 0.104217 0.051102
-0.051095 -0.336819 -0.074794
-0.162715 0.106515 0.054717
-0.086657 0.149416 0.139242
0.048718 0.090342 -0.278944
-0.172958 -0.012459 -0.074852
-0.127851 -0.281876 -0.070488
0.268553 0.274125 0.110338
-0.063447 0.221798 -0.042212
0.108334 -0.187458 0.246195
-0.025720 0.263463 -0.110267
-0.198950 0.114217 -0.028918
0.280840 0.175196 -0.107659
-0.109734 0.102500 -0.193559
0.196975 0.118618 -0.253433
0.020137 0.287082 -0.057822
-0.103800 0.125663 0.119995
-0.098896 -0.239987 -0.017281
0.235406 0.339539 0.168521
0.282865 0.022941 0.117274
-0.167486 -0.034788 -0.174538
-0.311866 -0.328845 -0.157603
-0.157943 0.047964 0.008018
0.236306 0.262483 0.066099
0.130608 -0.190346 0.226746
0.110059 0.429561 0.169083
0.184532 -0.025477 0.292729
-0.117677 -0.221044 0.037383
-0.033430 0.253318 -0.078064
-0.281476 -0.303164 -0.097892
-0.173417 -0.121785 0.126795
-0.292717 -0.325259 -0.103141
-0.041533 -0.316512 -0.142230
-0.142081 -0.274237 -0.159216
0.221633 -0.108243 0.038554
-0.074952 -0.261937 -0.001410
0.032278 -0.303409 -0.018293
0.246409 -0.032176 -0.085922
-0.081828 -0.240587 0.090170
0.035032 0.101545 -0.270837
-0.045646 -0.313751 -0.149694
0.003400 -0.011759 0.293060
-0.031940 0.082971 0.269926
-0.032633 0.253230 -0.066441
-0.164875 -0.299794 -0.068994
0.104194 0.066903 -0.295237
-0.090710 0.085278 0.249728
-0.098061 -0.251229 -0.147615
-0.028146 0.135848 -0.234008
0.008495 -0.148031 -0.258451
-0.175905 -0.158250 0.023575
-0.165833 0.099071 0.052824
0.035096 0.059600 -0.285526
0.215695 0.412589 0.139163
0.261460 0.281769 0.139022
-0.182432 -0.050145 -0.080162
0.042658 -0.175805 -0.251023
-0.213610 -0.267044 -0.116270
0.189749 -0.152929 -0.097894
-0.102748 0.151165 -0.105286
-0.045790 0.198743 0.207857
0.157837 -0.238217 0.069729
-0.019299 -0.290130 0.070242
0.147914 0.290983 0.021190
0.193430 0.373416 0.175602
-0.056454 0.231976 -0.021711
0.260677 0.310866 0.135144
-0.165755 -0.147873 -0.078592
0.090375 -0.099099 0.301759
0.035459 -0.185637 -0.242820
0.141504 0.282241 0.078673
0.188633 -0.179756 0.054813
-0.290242 -0.341756 -0.133505
0.244703 -0.036675 -0.082627
0.175308 -0.178799 0.194165
-0.081511 -0.249574 0.063912
0.151216 0.289894 0.030628
0.140062 -0.249729 -0.068783
0.261555 0.293492 0.089923
-0.108602 -0.182899 -0.133525
-0.057514 0.224819 0.038359
0.000799 -0.305077 -0.063158
-0.094162 0.104614 0.196509
-0.020175 0.259970 0.064370
0.120826 0.030454 -0.302049
0.000002 -0.045717 0.289529
0.069581 0.321440 0.091150
0.161843 0.010656 -0.286734
0.191060 0.272180 0.085114
0.086500 -0.247084 -0.148349
0.239071 -0.021423 -0.182924
0.098115 0.262225 -0.132786
0.183533 0.265395 -0.108412
0.057470 0.219916 -0.191075
-0.134344 -0.265142 -0.121120
0.168473 -0.173686 -0.170024
-0.216888 -0.326991 -0.121434
0.076849 -0.131168 -0.276186
-0.320701 -0.356116 -0.122381
-0.142294 -0.295821 -0.064748
-0.086912 0.014324 -0.240239
-0.136660 -0.202681 -0.007438
0.121682 0.176198 0.246464
0.020880 0.213393 0.205966
0.001125 0.290538 0.056369
0.243118 -0.040468 -0.081534
-0.179309 -0.152546 0.040991
0.011759 -0.187489 0.242150
-0.303945 -0.350690 -0.127311
0.142674 -0.245747 -0.069303
0.191453 0.034951 -0.266755
-0.174179 -0.109141 0.140284
-0.005870 0.092051 0.275092
0.122753 -0.203958 0.216448
0.193082 -0.162756 -0.004971
0.068539 0.293150 -0.032274
0.306680 0.089164 0.084875
0.244379 0.210191 -0.150130
0.045224 -0.062413 -0.296787
-0.149722 0.037924 -0.144265
0.194514 0.363708 0.157924
0.018973 -0.124831 0.278373
-0.135585 0.094819 -0.058276
0.111139 -0.187905 0.244354
0.045474 -0.108887 0.291498
-0.131718 0.057676 0.133042
0.258825 -0.005383 -0.077428
0.189948 -0.137266 -0.157448
-0.048629 -0.336444 -0.077951
-0.038174 -0.259514 0.123958
0.212576 -0.103508 -0.103055
-0.158251 0.116794 0.053400
0.166117 -0.157738 0.225809
0.278470 0.144766 0.167433
-0.227038 -0.322962 -0.095912
0.193221 0.109948 0.276344
0.092076 0.177115 0.245455
-0.042291 0.237674 -0.103175
0.034857 -0.114335 -0.281188
0.053329 0.160555 -0.243008
0.050819 -0.300699 0.000304
0.206978 0.253762 0.124030
-0.106366 0.015105 -0.228149
-0.018978 -0.237836 -0.170037
-0.009740 -0.199252 -0.215667
0.143586 -0.212021 -0.161668
0.061029 -0.243819 -0.173061
0.277605 0.021250 0.018493
-0.068490 0.206631 0.047302
0.139558 0.446200 0.130316
-0.148756 -0.060102 0.202103
-0.111292 -0.053534 0.231392
0.125587 0.155301 0.262239
0.100723 -0.276172 -0.037783
-0.301999 -0.331652 -0.145710
0.191674 -0.102689 -0.222904
0.224896 0.360546 0.105413
-0.060796 0.214241 0.069234
-0.101633 -0.227356 -0.063407
-0.185741 0.167045 0.034004
-0.159563 0.037625 -0.017080
-0.147961 -0.031648 0.197583
0.153992 0.437346 0.123974
0.161615 0.189119 -0.225704
0.312762 0.111158 0.073449
-0.064242 -0.029881 0.263958
0.204848 0.201863 0.206032
0.202950 -0.030901 0.274668
-0.136467 0.006556 0.227592
0.019305 -0.006758 -0.291542
0.080004 0.365002 0.166754
0.221954 0.024581 -0.233430
0.020894 -0.220437 -0.209360
0.269825 0.031122 -0.119056
0.205848 -0.139435 0.206145
0.229192 -0.101617 0.160169
0.112316 -0.275287 0.025354
0.181681 -0.179896 -0.043696
-0.074504 -0.091401 0.242067
0.278676 0.052190 -0.113839
0.206437 0.098732 -0.251032
-0.029960 -0.189979 0.216408
0.093333 0.089150 -0.287143
-0.010757 -0.189523 0.229348
0.015650 -0.232706 -0.194218
-0.017790 0.274299 0.108404
-0.332028 -0.369266 -0.149868
0.255047 0.339565 0.114586
-0.076457 -0.032740 0.256816
0.151435 -0.101185 0.284866
0.231346 0.392237 0.131585
-0.103200 0.071143 0.246055
0.169184 -0.195617 -0.089141
0.216075 0.388842 0.176382
0.171008 -0.044412 -0.265353
0.064624 0.239129 0.178937
-0.088398 -0.077796 0.238053
0.105909 -0.278568 0.016996
0.246251 -0.010898 0.227323
-0.232749 -0.279247 -0.149363
0.185915 -0.120295 0.238546
0.027903 0.285500 -0.066274
0.183679 0.116270 -0.262699
-0.059231 -0.001910 0.268578
0.157187 -0.110404 -0.242024
0.138685 0.131221 -0.268671
0.051950 0.229750 0.191150
-0.144619 0.048137 -0.152100
-0.153867 0.067802 -0.008194
0.224575 0.389696 0.116130
0.188523 0.412201 0.118846
0.158608 0.139337 -0.261254
0.148308 0.287798 0.047421
0.189983 0.284255 0.010420
-0.178290 -0.047466 0.058932
0.159300 0.059081 0.302401
-0.228962 -0.317324 -0.142702
0.061871 -0.246129 -0.168994
-0.047527 0.244062 -0.013231
0.126961 0.399149 0.144189
-0.181584 -0.127777 0.102519
0.281538 0.033633 0.000275
-0.045810 -0.047703 0.269858
0.067901 0.115173 -0.272646
0.258424 -0.032412 0.086976
-0.093909 0.135905 -0.182904
-0.142228 0.059053 0.086661
-0.115576 -0.191302 0.123056
0.213995 -0.088167 -0.152731
-0.083008 -0.341401 -0.068746
0.074987 -0.241371 -0.168177
0.114351 -0.241703 -0.127163
-0.184322 -0.087821 0.067607
0.284542 0.197300 0.099773
0.102158 0.412079 0.176872
0.080558 0.337517 0.104939
0.250243 -0.001048 -0.166601
0.140737 0.252830 0.153465
0.188070 0.280211 -0.055005
-0.150515 0.008753 -0.173011
0.267086 0.285299 0.114316
-0.078025 0.016752 0.261132
-0.178509 -0.035677 -0.089469
0.189819 -0.178621 0.068276
0.253545 0.182750 0.185210
0.136445 -0.191975 -0.185877
0.218318 0.276322 0.020728
0.038834 0.122263 -0.262703
0.148494 0.119900 -0.273677
0.161069 0.108479 0.285565
0.194001 0.280441 -0.042480
-0.114923 0.112306 -0.160692
0.232018 0.034574 -0.222720
0.162921 0.180002 0.240077
0.065106 0.290529 0.059161
0.030070 0.152865 0.255514
0.086378 -0.092597 -0.292176
0.092011 -0.025645 0.313825
0.083130 -0.207405 0.236737
-0.197248 -0.330052 -0.111576
-0.186981 -0.088191 0.050642
0.308847 0.131382 0.085256
0.144256 0.231407 0.186724
0.141239 -0.041572 -0.288511
0.056641 -0.299309 0.002871
-0.117617 -0.290087 -0.055894
-0.095781 -0.303080 -0.170147
-0.040105 0.272880 -0.064871
-0.116727 -0.207449 0.089402
0.243754 0.309899 0.160490
0.234635 0.055748 -0.221395
0.084202 -0.116878 -0.282265
0.058369 -0.285161 -0.081331
-0.204008 -0.088601 -0.077625
-0.024755 0.266670 0.122936
0.090691 -0.285627 0.029818
-0.159509 0.026128 -0.183140
-0.120268 -0.195058 -0.093706
-0.060080 -0.334026 -0.121254
0.092366 0.216743 0.208055
-0.009130 -0.129825 0.263750
0.289562 0.052119 0.175696
0.187756 -0.002748 -0.263714
0.207796 -0.144266 0.178704
0.186273 -0.145462 -0.154709
0.260694 -0.025302 0.201105
0.154116 -0.243982 0.072967
-0.108805 0.058923 0.244753
0.263224 0.249698 -0.020905
0.253730 -0.024623 -0.038849
0.155232 0.116113 -0.273724
-0.175042 0.085283 0.043278
-0.065689 0.134121 0.220126
-0.053038 -0.273691 0.052434
-0.026484 -0.288501 0.060824
0.314610 0.125084 0.006532
0.300682 0.162384 -0.041282
0.197923 0.222544 -0.177620
-0.062494 -0.144767 -0.216851
-0.059859 0.204636 -0.140327
-0.200747 -0.090333 -0.090679
0.086558 -0.080722 -0.296061
0.292143 0.051004 0.061450
0.221146 0.067679 -0.238820
0.074265 -0.139979 -0.272018
0.084289 0.269141 -0.117868
0.203882 -0.130469 -0.061786
-0.189727 -0.081346 -0.032035
-0.073847 -0.263072 -0.031245
-0.082723 -0.008504 -0.242098
0.077564 0.153898 0.260910
-0.164137 -0.090170 0.170107
0.229809 0.392856 0.127936
0.024856 0.287612 -0.056261
0.102048 0.429225 0.139594
-0.176535 -0.127778 0.112210
-0.069847 0.131592 0.210537
0.279029 0.079653 -0.162407
-0.222361 0.079797 0.032107
0.080122 0.274250 -0.105921
0.232109 -0.048131 -0.152340
0.146671 0.048674 0.306464
0.150837 -0.154508 -0.213089
0.151483 -0.137475 -0.226713
0.181969 -0.166671 -0.106673
-0.159127 0.034069 -0.048096
0.084863 0.167775 0.252517
-0.087642 0.104896 -0.222780
-0.164749 -0.092018 -0.146406
0.166078 0.006475 -0.283233
-0.108340 -0.271001 -0.063233
0.143221 -0.032290 0.310743
-0.127463 0.113099 0.064679
0.276979 0.179662 -0.115140
0.233284 -0.063026 -0.078939
-0.020026 -0.297718 -0.029764
-0.141543 -0.181630 0.087076
-0.189861 -0.081269 -0.005735
-0.028934 0.258590 -0.041338
0.137590 -0.000986 0.313913
-0.145371 -0.038336 0.193179
0.109997 0.253528 -0.150135
-0.048079 0.181936 0.203768
-0.075063 0.024627 -0.245940
-0.027375 -0.108197 0.263045
0.178822 -0.202348 0.116635
-0.029144 -0.301918 -0.150515
-0.301018 -0.305313 -0.150024
0.122282 -0.121083 -0.263219
-0.043921 0.038529 -0.260390
0.051911 0.350897 0.109050
0.208242 -0.121754 -0.058160
0.154621 0.062005 -0.289350
0.196838 0.148395 -0.241202
-0.144367 0.013467 -0.203575
-0.011473 -0.217496 0.205640
-0.182902 -0.047569 -0.002332
0.219729 -0.049451 0.246112
0.278571 0.229842 0.033947
0.227418 -0.091216 0.220307
-0.204924 -0.116110 -0.033277
-0.159556 0.155613 0.028872
-0.032824 0.254885 0.051858
0.049546 0.292342 0.047329
0.283399 0.051465 0.188076
0.148456 0.288493 -0.040536
0.047144 -0.284735 -0.094320
0.110431 -0.259750 -0.086768
0.038820 0.242284 0.172787
0.070641 0.250443 -0.151602
0.150709 -0.137290 0.261214
0.220982 -0.052266 -0.206825
0.144557 0.289844 -0.032100
0.315015 0.143778 0.032068
-0.099266 -0.231862 -0.056850
-0.104206 0.150507 -0.091096
-0.059056 0.212760 0.086354
-0.042903 -0.284268 0.027805
0.137941 -0.224587 -0.147083
0.103280 0.180895 -0.235042
-0.176540 -0.092843 0.101550
-0.099862 0.127061 0.133736
0.187615 -0.093052 0.257951
-0.227983 -0.270024 -0.140092
-0.187232 -0.092322 -0.050176
-0.075871 -0.193840 0.173682
-0.164960 -0.046102 0.182645
0.289849 0.051820 0.013582
0.261759 -0.026613 0.106563
-0.159298 0.138148 0.051164
-0.131790 -0.172632 -0.110022
0.136862 -0.251665 0.108082
0.303289 0.119842 -0.089341
0.169205 0.046430 -0.283471
0.245022 0.095055 0.240932
-0.131506 -0.162788 0.138552
-0.300627 -0.345191 -0.117631
-0.199074 -0.108471 -0.011406
-0.065903 -0.175654 0.200468
0.013718 0.295142 0.003710
0.055840 -0.293755 0.081913
-0.121929 -0.260813 -0.139369
0.250578 0.290307 0.153150
0.014013 -0.241031 -0.183097
-0.097032 0.131814 0.135238
-0.163995 0.080883 0.016349
-0.275351 -0.293498 -0.152775
-0.027064 -0.092860 -0.262329
0.193145 -0.102733 -0.219764
0.065196 0.198332 -0.214555
-0.047024 0.156034 0.237122
-0.065988 -0.289171 -0.172202
-0.013204 -0.122273 -0.259408
0.126043 -0.195002 0.225397
0.249178 0.246548 -0.081763
-0.003576 -0.291605 -0.134942
-0.007328 0.229011 0.185152
0.111349 0.289663 0.055536
0.272633 0.002267 0.072114
-0.147846 -0.025811 0.214938
0.130137 -0.217160 -0.157973
-0.123882 0.112123 -0.091332
-0.177969 -0.060558 -0.120383
-0.062422 0.082632 0.260701
0.164696 -0.055759 0.296826
0.297788 0.187451 0.003627
-0.048685 -0.324542 -0.046776
-0.162131 0.028413 -0.000716
0.316518 0.135465 0.009120
-0.055827 0.233343 -0.145305
0.034106 -0.193638 0.246172
-0.316437 -0.336078 -0.160196
0.091288 0.276548 -0.099634
0.082737 0.015893 -0.304367
0.121365 -0.256828 -0.089141
0.027432 -0.286077 -0.099617
0.168099 0.037298 -0.284201
0.060006 0.134131 -0.260669
-0.186265 -0.137360 -0.043072
-0.156911 0.052940 0.025387
-0.095951 0.158008 -0.193892
0.245964 0.220828 -0.135443
-0.095030 0.157581 0.077649
-0.014999 0.140585 -0.236130
0.259238 0.004910 -0.116872
-0.053247 -0.243828 -0.164310
-0.170183 -0.041216 -0.133340
-0.016188 0.143905 0.250753
0.174243 -0.207889 0.053331
-0.061372 -0.107189 0.244436
0.055368 0.095484 0.287296
-0.149745 0.079045 -0.016448
0.231218 0.212969 -0.164670
0.223075 0.099573 -0.234270
0.071558 0.144044 -0.257412
-0.091294 -0.326118 -0.148492
0.135448 0.023362 0.311503
-0.058064 0.166018 0.192876
0.026404 0.256413 0.149872
0.091253 0.274041 0.114116
-0.023026 0.287632 0.051179
0.211885 0.094774 -0.246441
-0.209682 0.116389 -0.023385
-0.028013 -0.049725 -0.270232
0.022131 0.211263 0.208450
0.147389 -0.182475 -0.191716
0.303330 0.106687 -0.067039
0.096785 -0.148702 -0.258906
-0.154695 0.054664 0.040205
0.020616 0.139254 0.260984
0.072426 -0.095675 0.300890
0.130562 -0.175390 0.243087
0.174535 -0.162091 0.211497
0.220666 0.320328 0.146280
-0.039683 -0.198825 -0.195664
0.143762 -0.098550 -0.261381
-0.040150 -0.264972 -0.169380
-0.096821 0.066186 0.250766
0.067666 -0.142391 0.283754
-0.179426 -0.101685 -0.117845
0.102309 0.224736 -0.190724
-0.065088 -0.246606 0.110446
0.107126 0.294304 0.011522
0.128308 0.000027 0.314377
0.245263 -0.048704 0.222964
0.136956 -0.133521 0.274299
-0.084907 -0.150331 0.202707
0.296480 0.102409 0.141834
-0.137939 0.042094 0.132295
-0.322808 -0.349039 -0.165138
0.198181 0.266872 0.097495
-0.016410 -0.043195 -0.276263
0.142409 0.163627 -0.248494
-0.095916 -0.258515 -0.159049
0.201116 0.218793 0.187338
-0.165794 -0.117730 0.142448
0.054155 -0.084711 0.299957
0.047298 0.342431 0.117943
0.189378 0.044368 0.295023
0.229574 0.246934 -0.113441
0.136020 0.277427 0.097758
0.178776 -0.194457 0.172858
0.019687 -0.258106 -0.159114
-0.060440 -0.273008 -0.005951
-0.181958 -0.095476 0.070766
-0.054041 -0.218625 -0.161183
0.062172 0.062388 0.299097
-0.083101 -0.134142 0.215239
-0.284333 -0.337627 -0.134735
-0.119140 -0.206943 -0.070584
0.223172 0.149443 0.240424
-0.038529 0.241663 0.150435
-0.183083 -0.045703 -0.039618
0.092242 0.379340 0.102365
0.119220 0.132372 0.276320
-0.202026 0.137937 0.042822
-0.157217 0.071531 0.021621
0.212924 -0.129351 0.056751
0.081985 0.180761 -0.233331
-0.056516 0.211851 -0.139056
-0.062970 -0.196342 0.183850
-0.074807 -0.018056 0.260036
0.111097 0.020382 -0.303918
0.231478 0.288056 0.117399
0.138175 0.410106 0.186443
-0.065532 -0.046286 -0.249123
-0.181143 -0.279521 -0.091672
-0.206150 -0.117287 0.037455
0.071000 -0.147791 0.281776
-0.086176 0.019121 0.257401
-0.027241 0.104404 -0.249298
-0.063335 0.210355 0.068788
0.101617 0.389684 0.108915
0.067474 -0.192908 0.252825
-0.125783 -0.193806 -0.084333
0.003913 0.227153 -0.170567
0.128677 0.186354 -0.230646
-0.180269 -0.333255 -0.099161
0.254976 0.136675 -0.182688
0.070167 -0.233472 0.210479
0.265006 0.041951 0.209998
-0.168107 -0.119831 0.136694
0.287463 0.041043 0.046720
0.041819 0.253003 -0.142743
0.158599 0.042391 -0.289351
0.047591 -0.266482 0.165330
0.092076 -0.284794 0.034049
-0.141032 -0.197156 -0.012770
-0.064699 -0.130319 -0.222646
0.042714 0.333655 0.105382
0.102709 0.374775 0.162557
-0.189920 0.158390 0.046834
-0.175703 0.171863 0.041975
-0.026309 -0.293656 0.007679
-0.105138 -0.114647 -0.196572
0.228870 0.029903 -0.225911
0.270800 -0.002745 0.078354
-0.025750 -0.179784 -0.221127
-0.082454 -0.336890 -0.126440
0.108920 -0.210139 -0.186709
-0.303459 -0.319907 -0.113411
0.265624 0.154431 0.188480
0.136521 0.215342 -0.201717
-0.188452 0.081080 0.007251
0.229085 -0.059057 -0.137998
-0.182617 -0.044066 -0.049645
-0.190359 -0.084411 -0.013447
0.161449 0.161001 -0.247293
-0.161997 0.155195 0.009868
0.109984 -0.203917 -0.194471
-0.185872 -0.110868 -0.095446
-0.100401 -0.154718 0.184638
-0.223556 -0.326973 -0.119973
-0.256369 -0.329290 -0.116630
-0.062793 0.217193 -0.099955
-0.053479 -0.144259 -0.223831
0.255537 0.339404 0.128905
-0.137103 -0.084068 0.199759
0.275870 0.234833 0.028159
0.203233 -0.148723 0.047049
-0.312119 -0.336936 -0.112173
-0.028488 -0.260770 0.133915
-0.162092 0.001807 -0.188228
0.187176 0.233007 -0.168816
0.219162 -0.120652 0.102128
0.154313 0.280936 -0.075368
0.297471 0.064513 0.142706
0.000308 -0.172666 0.246245
0.184049 0.258359 -0.125702
-0.165833 0.116380 -0.008823
0.208538 -0.033600 -0.235493
-0.126558 -0.304061 -0.054497
-0.080203 0.160324 0.141190
-0.063378 -0.318921 -0.038798
0.250053 -0.015959 -0.120042
-0.094143 0.100707 0.241715
0.251570 -0.052212 0.159760
-0.144016 0.026507 -0.169569
0.096509 0.056190 -0.298284
0.207249 0.105849 0.271252
0.174125 -0.204108 0.017927
0.173414 0.141879 0.265743
0.142774 -0.256089 -0.006192
0.046589 0.240925 -0.162928
-0.113620 0.145375 0.018305
0.223844 -0.093596 -0.025598
0.077333 -0.094961 0.301598
-0.034491 0.218196 0.193019
0.253230 -0.032895 0.003227
0.029048 -0.296323 -0.062987
-0.114477 0.023557 0.244012
-0.136295 -0.299146 -0.167405
0.020208 -0.304486 0.036296
0.040408 0.291524 -0.040388
-0.160157 0.012357 0.067813
0.019663 -0.302041 -0.032907
-0.147896 -0.330018 -0.135397
0.065858 0.236111 -0.172620
-0.165743 -0.335559 -0.108338
-0.282710 -0.288641 -0.148085
-0.176233 0.147234 -0.017044
0.301987 0.119280 -0.096504
0.186549 0.119587 0.274373
-0.118782 0.075632 -0.215533
-0.179276 -0.268250 -0.130297
0.294570 0.059770 0.040869
0.253499 0.141915 -0.183555
0.092490 0.280199 0.097526
0.093334 -0.245099 0.180266
-0.094771 -0.106152 0.221392
-0.157836 -0.175730 0.047424
0.062108 0.366818 0.106232
0.076315 0.290011 0.061622
0.015242 0.217777 -0.184238
0.081903 0.165953 -0.243989
-0.016633 0.259651 -0.118897
0.271597 -0.003151 0.099558
-0.080139 0.142698 0.178312
0.107224 -0.104859 -0.280467
-0.009536 -0.069575 -0.276534
0.197802 -0.043220 0.274699
0.109377 -0.056478 -0.297887
-0.161826 0.017980 0.043551
-0.199511 -0.313942 -0.077491
-0.036522 0.010309 0.278156
-0.126208 0.123270 -0.026254
0.155195 0.262811 0.129615
0.281804 0.204211 0.098606
-0.022662 0.249970 0.128647
0.067210 -0.291497 0.074674
0.146132 -0.210016 -0.161319
-0.091767 -0.100083 -0.215209
0.153970 0.114890 0.283735
0.172254 0.391164 0.142245
0.198257 -0.162212 0.176867
0.252455 0.297884 0.084641
-0.137139 -0.194967 0.064504
-0.083239 0.116588 0.242747
0.206181 0.253170 -0.122649
-0.159687 -0.276641 -0.097396
0.218499 -0.119641 0.075671
-0.074761 -0.328072 -0.046882
0.305963 0.122934 -0.076666
0.108829 0.224987 0.198584
-0.129001 0.062641 -0.178257
0.191282 0.422638 0.122836
-0.149208 -0.339162 -0.101377
-0.148233 -0.043422 -0.188568
-0.014960 0.270124 0.080658
-0.191473 -0.121586 0.092511
-0.000627 -0.019845 0.291777
-0.183670 -0.134703 -0.060458
0.154754 0.397732 0.159171
0.189220 -0.150654 -0.112463
0.183625 0.233441 0.174084
0.298312 0.182586 0.048609
-0.042616 -0.333946 -0.082913
-0.089855 0.178797 -0.063092
-0.113108 0.117681 -0.157592
-0.154335 0.068507 -0.003908
0.265491 0.283803 0.092510
0.184626 -0.125187 -0.210251
-0.100763 -0.102232 -0.206257
0.172815 -0.140038 0.236140
0.085573 0.266517 0.132785
0.038831 0.317109 0.130259
0.098241 0.287487 0.070414
0.043625 -0.084899 -0.291978
-0.161454 -0.054430 0.176071
0.026088 0.065978 0.290384
0.145950 -0.225974 -0.125243
0.254847 0.222624 0.134785
0.193392 -0.107941 -0.211690
0.086899 -0.135241 0.287784
0.032756 -0.202945 -0.228402
-0.013514 -0.171171 0.240051
0.201910 0.183185 -0.215675
-0.040680 0.241689 -0.084439
0.227505 0.133124 0.246112
-0.052403 0.237639 -0.019377
0.028764 0.266114 -0.116304
-0.125290 -0.203660 -0.060575
-0.077069 0.139499 -0.212751
-0.020917 -0.321905 -0.068741
0.054472 0.216242 -0.195096
-0.140983 0.055179 -0.156867
0.246147 -0.058537 0.072783
-0.028555 -0.291862 -0.018200
-0.088937 -0.231328 -0.102183
0.231079 -0.089782 0.055283
0.170528 -0.010062 0.303756
-0.055518 0.216510 0.092771
-0.199139 -0.098067 -0.049371
-0.119411 -0.214024 0.062766
-0.019135 0.261814 0.067264
0.063473 -0.194450 -0.233071
-0.025354 0.225693 -0.164744
-0.156849 -0.007343 -0.160208
-0.081781 0.193137 -0.032389
-0.150200 -0.046900 0.179725
-0.182797 -0.050359 0.014875
-0.143743 0.064504 0.074686
0.146885 -0.229886 -0.107627
0.000093 -0.134663 0.265905
0.113645 0.439550 0.145460
-0.194521 -0.060372 -0.122425
0.160700 0.285672 0.050669
0.153997 0.286633 -0.051194
-0.022940 0.241330 0.142649
0.316482 0.130942 0.033017
0.169294 0.280594 -0.067615
-0.110037 0.100100 -0.182730
0.240340 0.373228 0.119410
0.119103 -0.220444 -0.161509
0.292323 0.108971 0.146645
0.158607 0.283917 -0.060534
0.115889 -0.177267 0.251516
0.073093 0.196126 -0.217821
0.299621 0.146625 0.097553
0.268502 0.194167 0.148470
0.178880 -0.192934 0.003544
-0.264889 -0.326587 -0.142356
-0.049184 0.163596 -0.209707
-0.159198 -0.035118 0.192046
-0.154649 0.064890 0.036127
0.194675 0.398627 0.117216
-0.027106 0.264498 -0.060232
0.122858 0.284701 0.075792
-0.184212 -0.100197 0.104364
0.159079 0.282341 -0.066733
0.096397 -0.175151 0.261766
0.061621 -0.119410 0.291673
-0.184468 -0.052461 -0.010137
0.207076 -0.147054 0.117434
-0.107422 0.153655 -0.008048
-0.144093 0.046011 -0.203624
0.061101 -0.260537 -0.142937
-0.100646 -0.334574 -0.133907
-0.056225 -0.210007 0.176555
0.289854 0.182505 0.100335
-0.298991 -0.307600 -0.147320
-0.052051 0.221245 -0.135863
0.262117 0.237936 -0.070074
0.000985 0.177484 -0.216711
-0.095587 -0.075934 -0.221091
0.127822 0.398202 0.152008
0.128696 -0.128430 -0.253307
-0.024895 -0.256639 -0.164954
0.130101 -0.159624 -0.225906
0.187270 -0.016709 -0.260131
0.212260 -0.132794 0.075071
-0.101557 0.084461 0.242156
-0.108306 -0.252997 -0.135569
0.102998 0.294297 0.020764
0.210562 -0.134622 0.198538
-0.071536 0.066824 0.259979
-0.113435 -0.204501 0.104738
-0.095540 -0.338619 -0.061160
-0.029960 -0.221594 -0.179772
-0.173435 -0.031216 0.062816
-0.124857 0.121255 -0.041256
0.182290 0.209462 -0.199993
0.134758 -0.260338 0.089092
0.191089 0.245863 -0.145640
-0.099397 0.008316 0.250283
0.226361 0.355498 0.173837
0.105296 -0.274115 0.074987
-0.199336 -0.326261 -0.127407
-0.023356 -0.284990 0.080818
-0.169392 -0.001159 -0.075581
0.032663 0.295384 0.004896
0.015572 -0.255017 -0.163322
0.240860 -0.045345 -0.082589
-0.123627 -0.187815 -0.100163
-0.151247 0.074683 -0.014644
-0.189299 -0.140074 0.044712
0.249940 0.082661 -0.200196
0.085017 -0.047344 -0.303439
0.190205 0.029152 -0.267152
0.021913 -0.268255 -0.141260
0.201470 0.354747 0.157565
-0.041298 -0.207769 -0.184858
-0.004531 0.122464 0.263871
0.154234 -0.227546 -0.067258
0.154522 0.289328 0.031484
0.137501 -0.265690 0.024029
0.027880 0.294222 0.033896
-0.154572 -0.099229 -0.153289
-0.090282 -0.032982 0.249228
-0.013438 0.166829 -0.220305
-0.154404 -0.024474 0.157385
0.308704 0.152426 -0.006087
0.059512 -0.014666 0.308842
-0.178293 -0.094851 0.089786
0.124351 -0.197597 0.223479
0.153002 0.224362 -0.189449
0.021494 0.052724 -0.283475
0.152167 0.277351 -0.090270
0.111484 -0.220272 -0.169896
-0.058637 0.210893 0.095711
0.251119 0.286653 0.152031
0.284604 0.115720 -0.138483
0.238491 0.325892 0.095083
-0.024595 -0.262899 0.134244
0.032475 0.312605 0.103428
0.030815 -0.294732 0.095813
0.252447 -0.016023 -0.095983
-0.190383 -0.106218 -0.006945
0.218502 -0.112229 0.018097
-0.069659 -0.258952 0.065990
0.298128 0.144591 0.107193
-0.096175 0.021530 0.252765
0.143398 -0.242825 0.126021
0.233258 -0.018377 -0.213216
0.220883 0.160618 -0.216493
-0.205581 -0.293660 -0.079165
0.100800 -0.278105 0.062274
0.158941 0.056535 -0.288096
0.289630 0.186374 -0.064687
-0.137443 0.091538 -0.055404
0.165250 0.031177 0.306314
-0.161591 -0.172020 -0.024795
0.173616 0.023954 -0.280201
0.179539 0.127239 0.272162
0.243105 -0.041744 -0.075236
0.060854 -0.296245 0.058633
-0.058404 -0.109121 0.245428
-0.095126 0.134698 0.136964
-0.108335 -0.255577 -0.141771
-0.021968 -0.290591 0.061792
0.287539 0.037050 0.084627
0.022817 0.208014 0.211864
-0.063790 -0.269709 0.032059
0.270864 0.241247 0.095190
0.270729 0.217573 -0.087795
-0.077499 -0.051204 -0.240497
0.028878 0.302587 0.085142
-0.146227 0.017721 -0.169606
0.229085 -0.066384 -0.107485
-0.201304 -0.120377 0.062145
-0.058392 -0.329415 -0.050993
-0.035710 -0.038982 -0.267084
0.165243 0.249474 0.153529
-0.156305 0.060571 0.004525
0.104879 -0.214049 -0.185020
-0.051753 -0.326390 -0.048653
0.020462 -0.291346 0.106420
-0.000897 -0.272132 -0.148821
-0.140526 0.017380 0.161057
0.289699 0.041052 0.103977
-0.131828 0.110541 -0.035117
0.089241 -0.279158 -0.053504
0.158071 -0.068464 0.295733
0.014495 0.238107 -0.159289
0.291003 0.073080 -0.074217
-0.052386 0.233809 0.028635
0.050588 -0.116019 0.290287
-0.056972 -0.036541 -0.255864
0.111608 0.083448 0.297962
0.089413 -0.045338 -0.303832
-0.070278 -0.117507 -0.224614
0.128458 -0.163527 -0.223545
-0.114813 -0.181880 0.138655
-0.044213 -0.277965 0.062544
0.267243 -0.014393 0.175757
-0.138493 -0.178690 -0.084485
-0.087008 0.106342 0.232333
-0.181579 -0.130817 0.097670
0.174326 -0.187890 -0.078516
-0.155498 -0.079674 0.185517
0.106780 -0.276860 0.047550
0.035308 0.206986 -0.199952
0.083056 0.385861 0.167905
0.001076 -0.240596 0.188083
0.066557 -0.183181 -0.242706
-0.096356 0.138125 -0.205409
-0.147339 -0.001887 0.159618
-0.079268 0.193008 -0.099256
0.082485 -0.162158 0.273830
0.215597 -0.074679 -0.183845
-0.086462 0.171013 0.079088
0.178287 0.034314 0.300911
0.315291 0.128728 0.006265
-0.056725 -0.239917 0.135462
-0.101635 0.123174 0.134805
0.159240 -0.225525 -0.028694
0.122014 0.288616 -0.053635
0.164630 -0.219563 -0.002341
-0.018825 0.196032 -0.195812
0.097016 0.372357 0.111401
-0.067110 -0.205332 0.170971
-0.106810 0.119252 -0.172658
0.193570 -0.159255 -0.021041
0.094366 0.200633 0.225277
-0.158794 0.032607 -0.062769
-0.319570 -0.351319 -0.128281
0.043988 -0.171106 -0.254794
0.172031 0.214019 -0.198082
-0.057343 -0.275258 -0.009979
0.252962 -0.048912 0.142962
0.252727 -0.049054 0.175899
0.245492 0.367326 0.131837
-0.142207 0.054705 -0.151464
0.301940 0.075308 0.077894
0.001910 -0.130144 0.268640
-0.200006 -0.329728 -0.107492
-0.115925 -0.080399 0.217890
0.054067 -0.134457 0.284664
0.130766 0.287079 -0.058089
-0.049908 0.099653 -0.241415
0.205032 0.409698 0.119510
-0.059221 0.223080 -0.092878
0.081021 -0.044022 0.310918
-0.150370 0.028610 0.095759
0.284515 0.037400 0.021625
0.150789 -0.003552 0.311427
-0.183597 -0.077413 0.067734
-0.264992 -0.329704 -0.135327
-0.159026 0.042190 -0.001916
0.248603 -0.042168 -0.003762
0.263788 -0.018640 0.073649
0.249539 -0.044557 0.024942
-0.145896 0.049701 -0.140510
0.133256 0.434597 0.121210
-0.099422 -0.212420 0.115725
0.101739 0.056261 0.305984
0.205448 0.422207 0.149642
0.215773 0.198898 0.203805
-0.094506 -0.243323 -0.022124
-0.158379 -0.001559 0.105633
0.096203 -0.119508 -0.277411
-0.014778 -0.070742 -0.273680
0.296772 0.076226 0.160007
0.213325 0.278131 -0.009156
0.158410 0.289853 0.010974
0.179546 0.044564 -0.276962
0.234934 -0.073668 0.001895
0.266691 0.285660 0.119216
0.101749 -0.226543 0.203295
-0.080683 0.190440 -0.101236
-0.087002 -0.232316 0.100248
-0.158128 0.003749 0.097081
-0.146842 -0.007274 0.167594
0.142831 -0.219313 -0.150094
0.226517 0.318920 0.111804
-0.205946 -0.115859 0.041656
-0.129131 -0.161059 -0.129048
0.275745 0.080672 0.190841
0.144702 -0.110716 0.283296
0.200099 -0.032232 0.277257
-0.201065 -0.093853 -0.086595
-0.022373 0.259580 0.109653
0.160342 0.192757 -0.222335
0.300236 0.156829 0.083350
-0.009355 -0.297295 0.052585
0.188062 -0.184227 0.149519
0.300814 0.175447 0.036319
0.067127 -0.285283 -0.068536
-0.060091 0.207764 0.098888
-0.185769 -0.087612 -0.059343
-0.127880 -0.207103 -0.041608
-0.053743 -0.221041 0.166020
0.141419 0.256777 0.146511
0.082717 -0.289519 0.009359
-0.041478 0.047804 -0.259599
0.258451 0.096705 0.221010
-0.156209 0.140353 0.042676
-0.020963 0.281467 0.018376
-0.007138 -0.301481 0.016628
0.207864 0.369223 0.179011
0.136916 -0.150136 0.261129
0.071829 -0.272381 0.139464
0.145112 0.271643 -0.107298
0.266122 0.182967 -0.137679
0.067338 0.115255 0.281054
-0.110275 -0.200954 -0.103671
0.059437 -0.144154 -0.271465
-0.168668 -0.165677 -0.011359
-0.153199 -0.066290 0.195760
0.143844 0.184472 -0.231510
-0.140458 -0.005852 0.212036
-0.117824 -0.187657 -0.112743
-0.016184 0.153118 -0.227929
-0.019184 0.170838 -0.215793
-0.107396 -0.341617 -0.114192
0.181489 0.025262 -0.274261
0.176010 -0.015758 0.300166
0.277656 0.015986 0.057117
0.242478 0.367208 0.149284
0.050001 -0.301564 0.024248
-0.117441 -0.192304 0.118009
0.073223 0.184088 -0.229196
0.088430 -0.281384 0.083738
-0.190327 -0.086995 0.001251
-0.062090 0.155271 0.218165
-0.052191 -0.334080 -0.115102
0.309513 0.105740 0.012585
0.194582 -0.161503 0.007513
0.117536 -0.269754 0.061615
0.243031 0.252768 -0.078397
-0.149564 -0.013584 0.164379
-0.073026 -0.122763 0.228903
0.159009 0.252459 -0.145565
-0.159218 -0.018060 0.128803
0.000134 -0.156301 0.256188
-0.039762 -0.015322 0.276318
0.309837 0.114999 -0.024637
0.094115 0.132118 -0.267391
-0.208282 -0.319636 -0.140153
-0.147628 0.054579 0.071086
0.010092 -0.045111 -0.287673
0.005210 0.208028 -0.191381
0.169873 -0.028821 -0.272428
-0.022815 0.256153 0.145057
-0.059548 -0.236293 0.138094
0.095141 -0.227982 -0.173401
0.129613 -0.252712 0.110117
0.154995 0.165580 -0.245160
0.101760 -0.095552 0.302603
-0.016624 -0.144417 0.253910
-0.091528 0.177098 -0.178104
0.176909 -0.085750 -0.239771
-0.176656 -0.080549 0.103637
0.183537 -0.073370 0.274311
0.183590 -0.117809 -0.221178
-0.011113 0.229199 -0.164145
0.277435 0.016692 0.190047
-0.130154 0.060722 0.134496
0.054416 0.294887 0.028169
0.099251 0.252187 0.159034
-0.097116 -0.245880 -0.081482
0.297108 0.061833 0.134969
-0.028433 0.072215 -0.259647
-0.066429 0.153334 -0.209980
0.243283 0.245186 -0.098410
0.084880 0.341708 0.115377
-0.200041 0.144359 0.030883
-0.132889 -0.156414 0.144191
0.201810 0.064169 0.285461
0.268254 0.245317 0.009967
0.124661 -0.234491 0.164545
-0.078355 0.190228 -0.179576
0.093950 0.420578 0.139443
-0.175792 -0.049887 0.083912
-0.187829 -0.283032 -0.086414
-0.151348 -0.017370 0.161720
0.142535 0.418018 0.126813
0.129782 0.091717 0.295072
-0.105145 -0.344134 -0.100497
-0.211250 -0.286970 -0.083470
0.314977 0.141099 -0.017683
-0.111670 0.109770 0.120973
-0.080192 0.055194 0.258662
0.185998 0.095259 -0.267556
0.166117 -0.224293 0.074538
0.009865 -0.105352 -0.275899
0.165790 -0.223764 0.125839
0.137908 -0.144191 0.265229
-0.184591 -0.106327 0.074161
0.026423 0.260975 0.141584
0.208254 0.278642 0.029082
0.060168 -0.294919 0.067664
0.288043 0.067009 0.176656
0.057226 -0.184673 -0.243092
-0.000222 0.294866 0.000797
0.067610 0.243608 0.172918
0.002770 -0.026817 -0.285932
0.203869 -0.153460 0.114006
0.312207 0.112743 0.023475
0.100260 -0.214866 0.220502
0.150978 -0.214944 -0.136058
-0.054132 -0.113223 0.246377
-0.084017 0.189413 -0.040022
0.059260 -0.023985 0.308393
0.207297 -0.147298 0.135873
-0.150370 0.099515 -0.005887
-0.091022 -0.179532 0.171850
-0.052446 0.184558 0.177746
0.213770 -0.059913 -0.219669
-0.003502 0.232404 0.181922
0.284193 0.026177 0.127171
0.169277 0.000532 -0.279979
0.234748 0.277117 0.104572
0.113519 0.033152 -0.302323
-0.064089 -0.314010 -0.156966
0.162755 0.444663 0.163996
-0.072531 0.186500 -0.146927
-0.142626 0.080683 -0.050398
0.018003 0.293017 -0.025508
-0.052312 0.251987 -0.114173
-0.119577 -0.210994 0.072887
0.248821 0.060480 0.238073
0.164193 0.288965 0.018727
-0.000897 -0.276981 -0.145551
-0.036879 0.234186 0.114428
0.294737 0.180992 -0.046683
0.042275 -0.241047 -0.184227
-0.319893 -0.349025 -0.123224
-0.098703 -0.241309 0.006458
-0.080894 -0.216184 -0.129807
-0.003860 -0.035228 -0.282865
0.063452 -0.112861 0.294384
0.212984 0.033079 -0.245152
-0.282178 -0.279957 -0.129454
0.211156 0.274646 0.050025
0.297569 0.169701 -0.048890
0.134784 -0.248061 -0.098800
-0.208892 -0.266277 -0.130226
0.101537 0.285847 -0.069317
-0.019345 0.281238 -0.008206
-0.186033 -0.322608 -0.077919
-0.181684 -0.290399 -0.078301
0.231088 0.173297 -0.198427
0.030465 0.289988 -0.046080
0.228956 -0.079758 -0.040886
-0.095373 -0.203953 0.137284
-0.134846 -0.273268 -0.160040
0.059850 0.095532 -0.279340
-0.179340 -0.076210 0.092575
-0.152744 0.080506 -0.006152
-0.000616 0.178871 0.232329
-0.054748 -0.014174 -0.258288
0.115851 0.220308 -0.196455
0.019708 -0.294445 0.095929
-0.175801 -0.021177 -0.068209
0.210837 0.272706 0.063919
-0.088591 -0.208222 -0.129919
-0.140039 -0.072764 0.202937
-0.117083 -0.043135 -0.214002
0.150776 0.145410 0.266842
-0.100215 -0.166025 0.174634
0.131551 0.444846 0.165703
-0.075302 -0.318637 -0.039803
-0.024651 0.263584 0.035765
0.256475 0.249237 0.066512
-0.093361 -0.221092 0.110905
-0.090869 -0.239123 -0.058924
0.302108 0.169971 0.041628
-0.150857 0.097014 0.048361
0.283395 0.070541 -0.128441
0.080232 0.093601 0.291711
0.195813 -0.041448 -0.243185
-0.043983 -0.172455 -0.213077
-0.091989 0.150436 0.112606
0.108088 0.094356 0.294139
-0.073866 0.149151 0.185984
0.008379 0.061471 -0.276683
0.149001 0.246845 0.162113
0.064732 0.365370 0.098882
0.005494 0.002660 -0.286096
0.199301 -0.100443 -0.204067
-0.268138 -0.314653 -0.153934
0.165839 -0.163626 0.219944
0.152899 -0.240454 -0.002571
0.125302 0.441502 0.127920
0.034529 0.293157 0.041531
-0.122515 0.031170 -0.218194
0.215453 0.408520 0.126711
-0.129656 -0.329750 -0.140968
0.064041 -0.024728 -0.303620
0.016436 -0.175102 0.252210
0.020185 0.285558 0.103667
0.239315 0.174108 -0.188243
0.252698 0.115601 -0.192090
0.311127 0.149377 -0.025409
0.305901 0.098464 -0.007866
0.089985 -0.256798 -0.123622
-0.254178 -0.283082 -0.149055
-0.185141 0.079328 0.016389
0.196959 -0.112870 -0.186705
-0.146230 0.048093 0.085176
0.179305 -0.166516 -0.129088
0.117906 0.405619 0.119066
0.085583 -0.095889 -0.291131
-0.170566 -0.293558 -0.074253
0.144163 0.166851 0.252553
-0.270540 -0.281707 -0.103966
-0.095772 0.075701 0.249315
-0.173428 0.080833 0.025772
-0.045389 0.214787 0.138731
0.236457 -0.034683 -0.163918
0.210387 -0.088024 0.234418
0.191248 0.009131 -0.263320
-0.170857 -0.162706 -0.014280
-0.144142 -0.183347 0.075742
0.144356 -0.188615 0.214489
0.185223 0.218778 -0.187660
-0.086760 0.155482 0.123747
0.182438 -0.066205 -0.245263
0.189302 0.124119 0.271347
0.271551 0.005597 0.026830
-0.101008 0.115513 0.153362
-0.065050 0.150506 0.200332
0.254339 0.241087 -0.083983
-0.160470 -0.287497 -0.078278
0.080104 0.272383 -0.110779
0.033349 0.229558 0.189655
-0.158099 0.046254 0.016192
-0.032890 -0.143690 0.244603
0.200298 0.132891 0.263044
-0.052278 0.150332 -0.217037
-0.059136 0.087397 0.260386
0.017952 -0.128426 -0.271153
0.088387 0.346072 0.127439
0.158271 -0.191914 -0.166661
0.206471 0.039587 -0.253057
-0.175069 -0.018872 -0.157592
-0.120036 -0.010979 -0.217573
0.108581 -0.266061 -0.067782
0.303075 0.163023 0.050647
-0.042647 0.264384 -0.080875
-0.019017 -0.218901 0.198412
0.116428 0.388082 0.157790
-0.265912 -0.271817 -0.123217
0.252129 0.083005 -0.196918
-0.078058 0.157476 0.156319
-0.029043 -0.028237 0.279741
0.198435 0.358939 0.157270
-0.094649 -0.264431 -0.051422
-0.151784 0.026931 0.091076
-0.031663 0.115569 -0.242331
0.040934 -0.034889 0.303800
0.134939 0.176073 -0.239152
0.137907 -0.068222 -0.280890
0.115302 -0.112152 -0.272726
0.229441 -0.070897 -0.082299
0.137512 -0.076458 -0.277703
0.252929 0.012910 -0.182991
-0.061298 0.092127 0.258388
-0.084026 -0.312006 -0.164441
0.294673 0.083304 -0.075093
0.081869 0.403767 0.136886
-0.084576 0.188568 -0.024867
-0.321672 -0.356251 -0.145531
-0.166772 -0.011656 0.070925
0.194638 0.173961 -0.227665
0.096728 0.365541 0.158518
0.103113 0.177930 0.245096
-0.084908 -0.202268 0.152770
0.016108 -0.287876 -0.103755
-0.098505 0.158417 0.056763
0.250670 0.017770 -0.199370
0.065530 0.295698 -0.004821
-0.009825 -0.196499 -0.217946
0.096418 0.149612 -0.257125
0.225888 0.037968 -0.230329
-0.087145 0.145058 0.147524
-0.161218 -0.026285 -0.182694
0.192891 -0.167927 0.029344
-0.027578 0.279930 0.068335
-0.132473 0.076937 -0.194042
0.093019 -0.264607 0.136510
0.263118 0.247370 -0.031913
0.244561 0.188830 0.190722
-0.015142 0.277752 0.022946
0.183332 -0.179474 -0.025909
-0.143632 -0.031688 -0.195678
-0.071666 -0.253635 0.078013
0.184862 0.430825 0.169968
0.186308 -0.182834 0.040007
-0.174913 -0.124823 0.120045
-0.200334 -0.117853 -0.048580
-0.031767 0.284441 -0.041281
-0.183861 -0.049966 -0.055580
0.279980 0.218012 -0.051191
-0.060094 0.151344 0.220442
-0.075440 0.200553 -0.087892
-0.151664 0.079942 0.045322
0.079081 0.398465 0.123630
0.049829 -0.287247 0.113322
0.156824 0.028368 -0.291253
0.084635 -0.275067 -0.078926
0.224840 0.181625 0.215259
-0.149278 -0.183856 -0.038021
-0.040413 0.228819 0.118169
0.244558 -0.051292 -0.003509
0.104167 -0.154042 -0.250622
0.295943 0.057734 0.127748
-0.284137 -0.294854 -0.128020
0.054654 0.312697 0.147522
-0.176849 0.080825 0.031253
0.235012 0.265823 0.129702
-0.087575 -0.107982 -0.214944
0.241351 0.098038 0.245015
0.265822 0.252191 0.127009
0.306304 0.087931 0.089906
-0.128312 -0.115574 0.187431
0.065819 -0.238866 0.204709
-0.173370 -0.069612 0.155720
0.097879 -0.205197 -0.203323
-0.148565 0.045934 -0.131413
-0.150981 -0.033767 0.194780
0.231662 -0.086063 0.036663
0.142579 0.179449 0.242797
-0.064115 0.171370 0.220205
0.130678 0.403892 0.139330
0.268481 0.163702 -0.146220
0.068060 0.089972 -0.283084
0.196512 -0.127591 -0.144811
0.244145 0.232978 -0.119757
0.314840 0.143910 -0.015211
-0.161008 -0.027563 0.133685
-0.078421 0.066812 -0.237879
-0.162950 0.086563 0.005504
-0.150252 0.056416 -0.065466
0.234350 -0.079050 0.029447
-0.190388 -0.088382 0.005418
0.289252 0.076479 -0.101279
0.205534 -0.109844 -0.139895
-0.181278 -0.042978 0.007827
0.206379 -0.109555 -0.134189
-0.004598 0.063644 0.283072
-0.089791 -0.344337 -0.097014
0.041841 -0.283933 -0.099774
0.135598 0.401632 0.154301
-0.169748 -0.334531 -0.092263
-0.137627 -0.183733 0.092591
0.169178 -0.039476 0.298734
0.155347 -0.227257 -0.059181
-0.098674 0.163084 -0.069323
0.059656 0.230942 0.189972
0.259572 0.137712 0.206793
0.216210 0.272039 0.056866
-0.053928 -0.228819 -0.155503
0.253914 -0.009665 -0.108758
-0.036617 0.252970 -0.103340
-0.155755 -0.150862 0.114893
-0.181939 -0.046111 0.011527
-0.005294 0.221434 -0.174907
0.016078 -0.200585 0.234995
0.306567 0.094327 0.122816
0.192242 -0.172131 0.052627
0.206523 0.018687 0.283022
-0.170985 -0.083355 0.167836
0.215527 0.128810 0.256930
0.255596 0.090880 -0.190936
0.177287 -0.088386 0.271479
-0.194783 -0.125399 -0.047126
0.109254 0.252288 0.158224
-0.105601 -0.342532 -0.110363
0.173193 -0.212408 0.103659
-0.017410 0.293301 -0.003215
0.065724 -0.015618 0.310204
0.093138 -0.017856 -0.305848
0.172568 0.160521 0.252844
-0.031192 -0.075996 -0.263757
0.300779 0.095630 0.143614
-0.120966 0.116386 -0.100926
-0.149763 0.106742 0.049032
-0.173541 -0.019713 -0.099029
0.012436 0.281099 0.095098
-0.074653 -0.342838 -0.094943
-0.033649 0.215605 0.154975
-0.097761 -0.136104 -0.189910
-0.188934 -0.077818 -0.098475
-0.115427 -0.156067 -0.153983
0.068052 0.293838 0.036596
0.116786 -0.241915 0.158993
0.030528 -0.229533 0.214144
0.148959 0.243179 0.168452
0.267974 0.058834 -0.182779
-0.048362 0.132370 0.248394
-0.047928 0.044708 0.271874
0.222747 0.273732 0.029962
-0.145497 0.111333 -0.003760
0.185120 0.390449 0.183938
0.301297 0.121294 -0.100899
0.262863 0.243247 0.067845
0.225889 -0.056250 -0.171229
0.178511 -0.198601 0.160480
0.196179 0.128830 0.266545
0.244679 -0.065654 0.110614
0.201658 0.018691 0.286931
0.166270 -0.088928 -0.247710
0.116033 0.284324 -0.074077
0.093827 -0.007587 0.313483
0.059640 0.294174 0.128723
0.004016 -0.242162 0.187821
-0.210568 -0.290918 -0.156152
-0.079065 -0.304225 -0.034364
0.126984 0.080211 -0.291108
0.146961 0.186746 -0.229315
0.313008 0.146709 0.027367
-0.305186 -0.333692 -0.151352
0.100606 -0.237465 0.186799
0.064042 0.245029 -0.159144
-0.207297 -0.114448 0.026524
-0.188459 -0.098613 -0.027829
0.028747 0.293987 0.124350
0.071140 -0.292940 0.055387
0.090667 0.106385 0.287693
0.119671 0.244536 0.170912
0.070637 -0.293989 0.041214
0.307886 0.095898 0.046070
0.138034 -0.216284 0.180331
0.011479 0.228198 -0.171123
0.232002 -0.094024 0.184903
0.112065 0.088448 -0.288694
-0.079059 0.166463 -0.167987
-0.028110 0.254175 0.122496
-0.126929 -0.163398 0.144174
0.149168 -0.218421 -0.133713
0.236369 0.218251 -0.151796
0.023616 0.138231 0.262124
-0.193478 -0.060427 -0.116942
-0.204028 -0.279479 -0.153331
-0.065197 -0.335882 -0.059337
0.147894 0.116874 -0.274917
0.141511 -0.069559 0.303059
0.157997 -0.222066 -0.061822
0.312919 0.145007 0.039458
-0.109005 0.151609 -0.006098
0.155176 0.160712 0.255829
-0.167325 -0.141618 -0.086341
0.148533 0.010244 -0.294058
0.173643 -0.171534 -0.149737
-0.145518 0.029181 0.118957
0.226146 -0.062164 -0.150121
0.229323 -0.087581 0.012286
-0.110138 -0.141115 -0.173974
0.192506 0.251036 -0.135962
-0.086774 -0.191460 0.163966
0.025949 0.176818 0.238468
0.282701 0.214106 -0.046738
0.096699 -0.272008 0.106470
-0.000164 -0.291124 0.093128
0.059686 -0.097957 -0.291437
0.109103 -0.266953 0.099307
0.152078 0.209903 0.212562
0.315754 0.129893 0.013682
-0.080930 -0.276331 -0.173328
-0.245977 -0.326073 -0.104413
0.234980 0.252752 0.111257
-0.088574 -0.101052 0.228457
0.037164 -0.034219 -0.297131
-0.066759 0.180869 0.147021
0.265618 -0.001255 0.212148
0.201822 0.033362 -0.256963
-0.087478 -0.174707 -0.170140
0.208885 0.138980 0.255092
-0.115285 0.122681 -0.127085
0.245130 0.185173 0.193786
-0.117176 0.135841 -0.034307
0.257182 -0.038568 0.177058
-0.004425 -0.007164 0.290329
-0.024694 -0.309773 -0.137091
0.043768 0.219010 0.202326
0.090342 -0.202543 -0.212129
-0.139758 0.105998 -0.016381
0.225338 0.401324 0.143651
-0.295130 -0.320100 -0.161238
-0.105388 0.074269 0.242968
0.017808 -0.305395 0.014109
0.022961 -0.022857 -0.293049
0.099378 0.107174 -0.280354
0.226843 0.305829 0.124507
0.045296 -0.297417 0.074509
-0.022076 0.270668 -0.028997
0.285464 0.101442 0.166349
0.268157 0.241737 -0.031559
-0.004231 0.133278 -0.244064
0.085761 -0.062879 -0.300920
-0.036586 -0.250658 -0.166584
-0.040531 -0.007393 -0.266250
0.048535 -0.301187 -0.001958
0.064374 -0.297283 0.017080
-0.149790 -0.069050 0.197113
-0.056797 -0.155680 -0.214867
0.198665 -0.001376 -0.253565
0.292088 0.121715 0.141944
0.147080 -0.125614 0.272619
0.017821 0.237741 -0.160582
0.115190 0.292969 0.031681
-0.189629 -0.080026 -0.001036
0.078293 -0.174359 -0.246530
0.236843 -0.059397 0.227613
0.184262 0.383518 0.178701
-0.023596 -0.007464 0.283511
0.186246 0.285048 0.016958
0.224813 0.078872 -0.233897
-0.004758 0.034198 -0.277835
0.263494 -0.020094 0.194500
0.125657 -0.164919 -0.224628
0.052824 0.250422 0.162217
0.279443 0.014146 0.130020
-0.128072 0.002322 0.218805
-0.084064 -0.344025 -0.080405
-0.011111 0.042781 0.284560
-0.010131 -0.141133 0.258636
0.101524 0.276337 0.107932
0.243599 -0.010331 0.230952
0.267706 0.049738 -0.175020
-0.192521 0.080180 0.049085
0.196624 -0.161163 0.036765
-0.021698 -0.171472 0.235443
-0.264235 -0.273844 -0.135281
0.071674 -0.148408 -0.267374
0.086841 0.280086 -0.089430
0.098358 -0.280201 0.055922
-0.079680 0.101350 0.230973
-0.020965 0.199584 -0.192286
0.100278 -0.140259 -0.262744
