0.141963 -0.042080 -0.034443
0.206817 0.324862 0.111738
0.138821 0.093934 0.029224
-0.068932 -0.013591 0.016405
-0.042990 0.101452 -0.010578
0.094636 -0.173745 -0.105091
0.056771 -0.368756 -0.064230
-0.046017 0.095753 -0.027375
0.031339 -0.303360 0.029346
-0.080964 0.067406 -0.032853
0.015741 -0.376994 -0.086023
0.053870 -0.326891 -0.008005
0.084969 -0.089733 -0.169670
-0.062493 0.005992 0.037597
0.069785 -0.194924 -0.049771
0.220820 -0.154747 -0.215667
0.009393 -0.284144 0.051093
0.106222 -0.412461 -0.162594
-0.079073 -0.084079 -0.189699
0.027044 -0.425805 0.004112
0.101523 0.049031 0.011461
0.166348 0.254860 0.062855
-0.036582 -0.265965 -0.019481
0.340684 0.183859 -0.015506
0.083278 -0.121816 -0.116606
-0.005964 0.104984 -0.031860
0.040510 0.068018 -0.035109
-0.029367 -0.235053 0.115652
-0.013046 0.168143 -0.178025
0.134255 -0.003982 -0.097627
0.069739 -0.484036 -0.001759
0.170887 0.216933 -0.006745
0.044067 -0.188418 -0.206163
0.037799 0.143011 -0.012627
-0.050706 0.070434 0.058149
-0.089840 -0.131779 -0.359737
0.112381 0.323236 0.001276
0.014774 0.101097 -0.034732
-0.031224 -0.187565 -0.066942
0.063610 -0.469514 -0.049160
0.146398 -0.367330 -0.138748
-0.091898 -0.136901 -0.199535
-0.026817 0.190805 -0.174023
-0.037460 0.060799 0.075921
-0.044828 -0.031277 0.024105
0.027082 0.002276 -0.159961
0.022983 -0.261603 -0.175057
0.047682 0.377617 0.113942
-0.002467 -0.265420 0.017343
0.031074 -0.044675 -0.069647
0.123943 -0.402790 -0.154494
0.303646 0.269387 0.019639
-0.050545 -0.274782 -0.065435
-0.084157 0.034699 -0.096260
0.012975 -0.405225 -0.010872
0.185118 0.324367 0.033490
-0.083331 -0.056804 -0.325375
0.212523 -0.099005 -0.194981
0.114168 0.222539 0.085523
0.018135 -0.239724 0.023607
0.011830 0.142294 0.005253
0.037251 -0.449216 0.021435
-0.118261 -0.259014 -0.034656
0.180111 0.044660 -0.150555
0.088304 0.119740 0.107727
0.037152 -0.368712 -0.112378
0.054991 -0.498397 -0.057373
0.042383 -0.014959 -0.062810
0.037842 -0.124011 -0.074970
0.003445 0.111736 0.088187
-0.062388 -0.098326 -0.312254
0.031585 -0.261336 0.040182
-0.102659 0.349540 0.343069
-0.098539 -0.304500 0.002575
0.002622 0.294843 0.009100
-0.084547 -0.257322 -0.039849
0.108731 0.055587 0.044291
0.044025 0.005600 -0.020331
0.011178 -0.191124 -0.031259
0.071860 -0.182822 -0.078095
0.016227 -0.006869 -0.178048
-0.034961 0.091955 -0.047669
0.126786 -0.425636 -0.182014
-0.011319 -0.140603 -0.067309
0.084369 -0.240672 -0.142846
0.016811 -0.443322 -0.037082
0.178818 0.193372 0.026721
0.104097 0.270337 0.087072
0.001126 0.186341 -0.146786
0.088641 -0.376574 -0.099100
0.078339 -0.206819 -0.162508
0.001763 -0.242529 0.026683
-0.076789 -0.046101 -0.319445
-0.007921 -0.237851 -0.024535
0.177892 -0.061953 -0.150058
0.277903 0.327709 0.029936
0.088919 -0.396426 -0.169738
0.130406 -0.429602 -0.179354
-0.075976 -0.191832 -0.322358
-0.081888 -0.212493 -0.390773
-0.117703 -0.286127 -0.002224
0.018305 -0.481064 -0.018873
-0.050474 -0.318405 0.000272
0.248669 0.194792 -0.042110
-0.098707 -0.115637 -0.283600
-0.044925 -0.078290 -0.026067
-0.016725 0.340529 0.201765
0.040249 0.239854 -0.121552
-0.048138 -0.169699 -0.327408
-0.002416 -0.083455 -0.224497
0.207783 -0.171422 -0.221780
0.051717 0.294567 0.037035
0.154940 -0.070827 -0.201317
0.054435 0.287994 0.085758
-0.006818 -0.171162 -0.057554
0.054142 -0.273074 -0.001822
0.228507 -0.137810 -0.209335
-0.065011 -0.104095 -0.292603
0.035545 -0.162265 -0.038283
-0.017047 0.389700 0.247522
0.088846 -0.141085 -0.125160
0.048563 -0.447854 0.018140
-0.048437 -0.093239 -0.050593
0.071217 -0.087415 -0.185018
0.043261 -0.096658 -0.207564
0.058371 0.169001 0.073491
0.010998 -0.309439 -0.137554
-0.019208 0.306714 -0.024728
-0.006569 0.204612 -0.174901
0.093832 0.357717 0.090114
-0.113679 -0.109443 -0.312886
0.011615 0.365657 0.141721
0.097421 -0.199999 -0.075233
0.053716 -0.021087 -0.106658
0.132422 -0.357836 -0.142364
-0.119791 -0.108614 -0.265581
0.084848 0.176640 0.105832
-0.086751 -0.177241 -0.321629
0.076954 0.114055 0.119104
0.106963 -0.187293 -0.102226
0.063539 0.131750 0.123158
0.052380 -0.009847 -0.121678
0.232904 0.313511 0.075569
0.030575 0.311421 0.093928
0.321193 0.153902 -0.030551
0.035440 -0.309229 0.022415
0.030298 0.241108 -0.012877
0.088034 -0.048886 -0.067771
0.044215 -0.414984 -0.044208
0.068108 -0.390856 -0.132705
0.024554 0.373587 0.199207
0.025127 0.320290 0.119231
-0.014176 -0.256141 -0.017792
-0.056491 0.357032 0.324651
-0.005900 -0.324506 -0.111655
0.003497 -0.153864 -0.069040
0.107863 0.067721 0.005850
-0.057487 0.189966 -0.197468
-0.013451 -0.033047 -0.001118
-0.134198 -0.097840 -0.263500
0.043568 -0.237359 -0.013005
0.203122 0.281307 0.070397
-0.041066 0.366150 0.281363
0.023450 -0.419209 -0.012629
0.084621 0.093341 -0.013456
0.056356 0.285295 -0.039519
0.054378 -0.224208 -0.184800
0.130186 0.262893 -0.021592
0.011688 0.057141 0.111696
0.021085 -0.037114 -0.199185
-0.071324 0.008754 0.026972
0.089183 -0.367780 -0.085618
0.119082 0.087685 -0.005038
0.072103 -0.170895 -0.180496
0.130741 0.256273 0.077617
-0.005912 0.082600 0.090872
0.079007 0.031945 0.004506
0.023029 0.057549 0.100021
0.046423 -0.134640 -0.215188
-0.054688 -0.153435 -0.327800
0.207349 -0.059293 -0.184995
-0.036239 -0.265166 -0.082483
0.316552 0.201054 -0.017270
-0.060491 -0.086649 -0.082771
0.048028 0.185779 0.009105
-0.007511 -0.224763 -0.027708
0.073115 -0.319476 -0.098457
0.045162 -0.373490 -0.071236
0.096818 -0.361764 -0.155922
0.144498 0.230740 -0.026803
0.007425 -0.182259 -0.055712
0.109703 0.095892 -0.002245
0.083292 -0.300301 -0.063621
-0.092784 -0.219407 -0.372418
0.011782 -0.009027 0.041218
0.044264 -0.041524 -0.077344
-0.002576 -0.198895 -0.044449
0.004293 -0.053298 -0.055790
-0.045642 0.024841 0.065707
0.023979 -0.177918 -0.026807
0.056146 -0.275766 -0.005094
0.063746 0.096766 0.115625
-0.001838 -0.376443 -0.060083
0.043425 -0.377701 -0.092041
-0.027323 -0.364386 -0.027154
-0.123092 -0.191908 -0.387446
0.137264 -0.354012 -0.162568
0.068860 -0.398858 0.000659
-0.024557 -0.360321 -0.044615
-0.055383 -0.304194 -0.012989
-0.013266 0.053494 -0.115768
-0.032274 -0.428422 -0.013885
0.057156 -0.071526 -0.080822
0.006607 -0.289732 0.044694
-0.064620 -0.075341 -0.217424
0.000558 0.262045 -0.005796
0.076373 0.021367 0.035018
-0.091264 -0.110470 -0.277380
0.061630 0.216433 -0.009823
0.021520 -0.076278 -0.072581
0.044825 0.376613 0.096306
-0.028132 0.113225 -0.001276
-0.066260 -0.313384 -0.018454
0.158120 -0.066990 -0.202059
-0.039974 -0.221475 -0.174444
-0.019456 -0.367560 -0.036214
-0.038611 -0.168767 -0.108684
0.337242 0.207847 -0.003996
-0.042353 -0.249144 -0.076886
0.029115 0.240131 -0.101553
0.024774 -0.400446 -0.000511
0.293517 0.341653 0.027451
0.135345 -0.032958 -0.055870
-0.137111 -0.263447 -0.016798
-0.010038 0.118582 -0.005005
-0.061815 0.003933 0.039781
0.030345 0.159538 0.040534
-0.073420 -0.214113 -0.355260
0.187294 -0.054002 -0.193340
0.082172 -0.247713 -0.037164
0.083296 0.170663 -0.023656
0.034943 -0.346865 -0.134116
-0.020902 0.297341 0.226622
0.025208 0.361655 -0.090726
0.053018 0.200683 0.026001
0.020273 0.334098 -0.104142
-0.085990 -0.015115 -0.133454
0.103234 0.212488 -0.027467
0.138087 -0.048951 -0.052669
0.041730 0.273820 0.021973
-0.050683 0.274780 0.301049
0.039666 0.172557 0.041015
0.022141 0.265708 -0.046801
0.075831 -0.290127 -0.118878
-0.077776 -0.071966 -0.156744
0.025437 0.316946 0.061575
0.136464 0.280968 -0.015512
0.104998 0.142303 -0.026939
-0.020757 0.237196 -0.146919
0.162719 0.143116 0.034316
0.057625 -0.010103 -0.141072
0.233759 0.293701 0.068069
0.097387 -0.212938 -0.134670
0.201655 0.331732 0.104780
0.042992 0.340115 -0.086937
0.004104 -0.422791 0.010210
0.114668 -0.407943 -0.185143
0.001445 -0.029004 0.001866
0.017073 -0.321532 -0.145166
0.158091 -0.096150 -0.171472
0.018613 0.300698 0.177021
-0.087344 -0.025748 -0.040045
0.052293 -0.247453 -0.014609
0.037147 -0.095587 -0.076983
0.045627 0.169294 -0.128492
0.097256 0.080316 -0.001705
0.316259 0.228168 0.005427
-0.034997 -0.192075 -0.342700
0.066254 -0.303172 -0.019339
-0.119538 -0.215229 -0.389540
0.016574 -0.171255 -0.052007
0.082717 -0.373122 -0.094171
0.329734 0.157185 -0.023347
-0.110535 -0.114346 -0.284020
0.048954 -0.378617 -0.106368
0.039556 -0.166274 -0.059268
-0.104741 -0.125746 -0.250814
-0.068542 0.336573 0.322118
0.298683 0.139804 -0.035459
-0.020969 -0.213482 -0.054362
-0.029144 0.287594 0.269170
0.091133 0.306649 0.098502
-0.112903 -0.220544 -0.396497
0.104094 -0.414778 -0.111684
0.322723 0.146239 -0.018149
0.201217 0.312079 0.089854
0.012045 0.301043 -0.122174
-0.070534 -0.047611 -0.015558
0.084458 0.035231 0.057455
0.071591 0.232429 0.053125
0.055113 -0.385936 -0.064395
0.077009 0.224016 0.065982
0.083767 -0.028188 -0.086329
0.018807 0.371883 0.159468
-0.011149 0.298576 -0.081420
0.168095 -0.162088 -0.234345
0.014062 -0.072772 -0.068399
-0.076413 -0.076038 -0.209384
-0.028712 0.220421 -0.147284
-0.025273 -0.448001 -0.004412
0.052433 0.202120 0.021981
-0.008908 -0.199246 -0.203749
0.053407 0.217963 0.021523
0.074440 -0.477529 -0.050224
-0.028866 0.345065 0.285942
0.061289 -0.299160 -0.013815
0.099153 -0.426094 -0.109494
-0.040396 -0.233924 -0.082853
0.196183 -0.085497 -0.158002
0.098887 0.056622 0.007796
0.053213 0.228072 0.029176
0.040573 0.164618 0.058628
-0.003149 -0.229364 0.044783
-0.079837 -0.098545 -0.277190
0.052580 0.013338 0.052255
0.145334 -0.036657 -0.173964
0.286894 0.219094 -0.022511
0.033891 0.187723 -0.155839
-0.097251 -0.254139 -0.038681
-0.005130 0.282676 -0.127660
-0.143287 -0.252148 0.008181
0.027315 0.287369 0.006199
0.142687 0.306201 -0.003455
0.008560 0.316234 -0.013600
-0.046843 -0.004839 0.065000
-0.154958 -0.272057 0.036764
0.076310 -0.383608 -0.072693
0.006199 0.301363 0.196965
0.032580 0.239278 -0.012315
0.172807 0.171968 0.016374
0.217218 0.328258 0.081599
0.233511 0.307886 0.074819
0.079630 0.371519 0.087096
0.119709 0.194157 -0.028345
0.182918 -0.102099 -0.160438
-0.049328 -0.289543 -0.087647
-0.027850 -0.427803 -0.001183
0.158435 -0.057265 -0.140837
0.172670 0.202474 -0.000248
-0.129272 -0.114681 -0.226633
-0.037667 -0.035595 0.022166
0.163756 -0.144786 -0.231261
0.090243 -0.146994 -0.140916
0.085603 -0.257670 -0.124822
0.039005 -0.155899 -0.215673
-0.018497 0.000314 0.062744
0.057768 -0.346593 -0.164199
0.042355 -0.002647 -0.073304
-0.014809 0.285900 0.014695
-0.020313 -0.287798 0.012214
0.121366 0.232554 -0.031571
-0.011884 -0.358386 -0.065543
0.024996 -0.060303 -0.204949
0.022032 -0.019056 0.003370
-0.082636 -0.263821 -0.046551
0.096876 -0.483990 -0.032499
0.037204 0.181859 -0.120952
0.010226 0.233837 -0.097868
-0.081367 0.051335 0.017363
-0.023517 -0.190084 -0.198660
0.032081 -0.487543 -0.000783
0.003286 -0.249720 0.062683
-0.026968 0.315717 0.232656
0.061403 0.345096 0.027923
0.005008 -0.185990 -0.212658
-0.040601 -0.345371 0.001766
0.136611 0.120192 -0.005622
0.048049 0.305833 0.032999
0.131414 0.242551 -0.025224
0.188304 -0.044348 -0.146192
0.280355 0.166281 -0.029187
0.077181 0.026216 0.021912
0.005587 -0.235159 0.030247
0.075705 -0.061558 -0.161061
-0.012913 0.282224 -0.039847
0.069220 0.265403 0.078233
-0.040826 0.286375 0.302345
0.097641 0.104084 0.098551
0.018321 -0.462311 -0.020867
-0.039745 -0.091442 -0.033237
-0.097088 -0.124561 -0.185452
0.095221 0.212517 0.102051
-0.022484 -0.061021 -0.038829
-0.020120 -0.104901 -0.223149
0.219276 0.318005 0.073459
-0.092116 -0.003087 -0.116827
0.174073 -0.126552 -0.179195
-0.016609 0.286928 -0.053738
0.050552 0.120655 0.109665
0.066687 -0.282823 -0.019273
0.022522 0.322276 0.115119
-0.085714 -0.121427 -0.181829
0.092110 -0.086535 -0.138866
0.146279 0.109213 0.040792
0.092861 -0.222695 -0.102289
-0.007061 -0.445053 -0.007851
0.102309 -0.067570 -0.141702
-0.021509 -0.392212 -0.022411
0.200387 0.325284 0.102949
0.054346 -0.070335 -0.080316
0.165104 0.246203 0.063268
-0.036792 -0.276358 -0.071522
0.031054 0.311214 0.136245
-0.112673 -0.261954 -0.038800
0.034226 0.253090 -0.044290
-0.052706 0.404033 0.282640
0.049373 0.200755 -0.136661
0.019934 -0.155177 -0.070885
0.193099 -0.080039 -0.156555
-0.007558 -0.226694 0.055366
-0.046480 0.283070 0.283815
0.116020 0.345724 0.041596
0.143841 0.101003 0.055323
0.236731 -0.145665 -0.211683
0.092228 -0.386856 -0.139061
-0.013425 -0.025504 0.020642
0.035046 0.258952 -0.100855
-0.075035 -0.156217 -0.357957
-0.040651 0.381754 0.286186
0.069794 -0.309547 -0.023391
-0.059218 -0.194692 -0.313964
0.053323 0.335498 0.159121
0.080029 -0.306483 -0.084872
-0.038345 -0.056746 -0.204010
0.091425 0.150461 0.122943
0.076179 0.249825 -0.034384
0.112684 0.187317 -0.026639
-0.063636 0.401045 0.300742
0.322923 0.212849 0.009099
-0.039928 -0.171919 -0.111870
-0.019500 -0.204407 -0.335567
-0.014039 -0.353569 -0.070337
0.163533 0.287744 -0.003678
0.050670 -0.275066 0.003412
0.088046 -0.310486 -0.060832
-0.034251 -0.300273 -0.108137
-0.084090 0.027458 -0.101084
0.089835 0.268975 0.096866
0.028798 0.309702 -0.067347
0.039497 0.000213 0.041415
0.207333 -0.072312 -0.188553
0.006247 0.292573 0.009744
0.223807 -0.103149 -0.187668
0.036195 0.021683 -0.054924
-0.016031 -0.231889 0.089063
-0.031678 -0.069166 -0.216031
0.098908 0.349150 0.090519
0.097962 -0.365020 -0.082288
-0.058324 -0.278242 -0.056480
-0.039277 0.277675 0.009866
0.273461 0.172331 -0.046290
-0.026463 -0.384456 -0.026697
0.074130 0.374493 0.089936
-0.004801 0.276937 -0.036827
0.044922 -0.257811 -0.171028
-0.043962 -0.145865 -0.118924
0.009559 -0.429332 0.018038
0.063390 0.380279 0.100781
0.039358 0.089816 -0.030120
-0.021590 -0.196369 -0.065692
0.054514 -0.215029 -0.044902
0.080391 -0.407395 -0.030142
-0.103316 -0.204004 -0.397935
0.074000 0.253061 0.096618
0.244749 -0.109282 -0.169870
0.052757 -0.256850 -0.168109
0.027248 -0.350715 0.013450
0.143304 0.207253 0.078273
-0.102026 -0.105302 -0.196952
0.032221 -0.379774 -0.068423
0.018458 -0.477456 -0.029680
0.200331 -0.066459 -0.158292
0.139411 0.209627 0.079051
-0.017010 -0.380135 -0.038457
0.096014 0.046383 0.047933
0.090731 -0.228240 -0.084165
0.187648 0.242944 0.044754
0.299498 0.317920 0.038474
-0.029967 0.056996 0.075478
0.021414 -0.342145 0.035468
0.010080 -0.218239 0.092607
0.071500 0.085056 -0.017086
-0.087325 -0.065500 -0.213513
0.192091 0.010506 -0.162760
0.061843 0.378336 0.113179
-0.117198 -0.109485 -0.259587
0.086779 -0.373741 -0.175130
0.038649 0.077778 -0.036290
-0.037891 -0.222822 -0.349051
0.015408 0.115989 -0.020285
0.200680 0.009388 -0.158033
0.211125 -0.056599 -0.176883
-0.084651 -0.121456 -0.264961
0.076672 0.191804 -0.014474
0.057734 -0.168296 -0.078963
0.040391 -0.266593 -0.167080
-0.005243 0.302799 -0.095081
0.078772 0.162260 0.102795
0.073618 0.254184 0.070353
0.020402 0.316602 -0.086383
-0.044769 -0.208262 -0.053273
-0.092294 0.021475 -0.091733
0.027484 0.318113 0.066838
0.171318 0.163587 0.043857
0.154419 0.235287 0.069586
0.030750 0.334306 0.184543
0.190145 -0.157348 -0.232285
0.040439 -0.441907 0.000321
-0.026452 -0.242925 0.135339
-0.023968 -0.424067 -0.020559
-0.037672 -0.339261 0.010637
0.034330 -0.105210 -0.063219
-0.166900 -0.280097 0.045113
0.051757 0.023413 -0.020065
0.137661 0.223686 0.077185
-0.059585 -0.273200 -0.078111
0.037839 0.345711 0.049324
0.270401 0.186310 -0.004482
0.034516 0.243258 0.018499
0.193992 0.309761 0.008617
0.007578 0.063316 -0.069250
0.123015 -0.384870 -0.178357
0.128239 0.244646 -0.025758
0.049396 0.091939 -0.026444
-0.014808 -0.239059 -0.176818
0.037805 -0.384830 0.029076
0.011635 0.254877 -0.017222
0.009839 0.362895 0.125728
-0.020432 0.321297 0.268103
-0.042515 -0.363575 -0.026653
0.071650 -0.135865 -0.188543
0.179780 0.212928 0.053379
0.012391 0.081065 0.126571
0.113570 0.301632 0.083850
0.159795 0.181244 0.075176
-0.046428 0.011969 -0.166063
0.045778 -0.000018 -0.112013
0.159974 -0.415657 -0.151132
0.054948 -0.186842 -0.199641
0.241814 -0.139075 -0.203652
-0.046955 0.196253 -0.174914
-0.140419 -0.071115 -0.271034
-0.088960 -0.122952 -0.259356
-0.071620 -0.210565 -0.337088
0.177645 0.018110 -0.165752
0.090380 -0.230219 -0.135805
0.080823 -0.341275 -0.105278
0.038529 0.175798 -0.155381
-0.144674 -0.270424 -0.001548
0.092916 -0.165150 -0.128348
-0.084592 -0.043067 -0.053362
0.190045 0.234424 0.033337
-0.067243 -0.142447 -0.163635
0.024230 0.321577 0.158632
-0.037693 -0.234983 -0.123355
0.055051 -0.282394 -0.145515
0.189817 0.009227 -0.164373
0.056531 -0.199113 -0.193647
0.034914 -0.489952 -0.044966
0.072148 -0.374114 -0.029716
-0.115483 -0.108114 -0.198128
-0.032808 0.350102 0.288208
0.208291 0.327917 0.112070
-0.045214 -0.161132 -0.079382
-0.069748 0.071233 -0.057590
-0.025387 0.317507 0.270855
0.078577 -0.131587 -0.185703
0.035053 0.225072 -0.111008
-0.076821 0.040391 -0.093000
0.000759 0.330565 0.247365
-0.094025 -0.217027 -0.375170
0.011303 -0.026263 -0.009938
0.020108 -0.406940 -0.008301
-0.103761 -0.060125 -0.325779
0.145626 0.114369 0.070364
-0.096673 0.039646 -0.055381
0.042501 -0.246267 0.011007
0.018078 0.252328 -0.014757
0.179164 0.232645 0.004556
0.055120 -0.163788 -0.079202
-0.093551 0.031489 -0.069544
0.020820 0.263147 -0.133271
0.036147 -0.454916 0.030188
0.041775 -0.384861 -0.007725
-0.035151 -0.187928 -0.103652
0.081567 -0.227161 -0.032091
0.155642 -0.064556 -0.155190
0.072346 0.026960 0.006682
0.064912 0.301916 0.126613
0.009933 0.321997 -0.038715
0.078343 -0.119366 -0.106123
0.074207 0.353914 0.034505
0.088881 0.356955 0.034163
-0.045361 -0.264901 0.008848
0.096437 -0.245115 -0.106318
0.051904 0.302218 0.031103
0.035326 0.310334 -0.024071
-0.014672 -0.271005 0.076983
-0.144377 -0.265169 -0.006345
0.116364 0.202856 -0.027695
0.075331 0.323577 0.002714
-0.007234 0.317965 0.186096
0.021776 -0.307307 0.038208
0.096729 -0.230523 -0.091351
-0.074826 -0.181836 -0.365608
0.267625 -0.132281 -0.190680
-0.032038 0.059240 -0.100433
0.059781 -0.363754 -0.050031
0.118957 -0.051429 -0.142765
0.098738 0.088061 0.090213
-0.063385 -0.233522 -0.362586
0.008893 0.386329 0.217170
0.052078 -0.052531 -0.193577
-0.003265 0.128922 0.007303
0.013717 0.263767 -0.079445
-0.130700 -0.056194 -0.263640
0.024091 -0.191170 -0.019347
-0.020639 0.069473 -0.083060
0.083971 -0.399610 -0.094416
0.112966 0.075137 0.077757
0.092541 -0.233653 -0.128608
-0.042855 0.003515 -0.174633
-0.009635 0.022590 0.076180
0.025881 -0.117912 -0.063945
-0.103010 -0.283522 -0.027455
-0.008845 -0.241949 -0.177473
-0.055170 -0.114702 -0.116367
-0.053426 -0.165028 -0.156754
0.117585 -0.001447 -0.108295
-0.043574 -0.058164 -0.011384
0.138418 0.282547 0.067337
0.000121 0.080962 -0.055928
0.036865 -0.393619 0.027310
-0.060031 0.337112 0.280246
0.054792 0.334079 0.155922
0.125245 0.083960 0.010590
-0.039315 -0.223505 -0.148502
-0.048900 -0.286134 -0.088763
0.151703 -0.080800 -0.176898
-0.077583 0.029155 0.023968
0.119451 0.261006 0.077859
0.048040 0.265527 -0.047582
0.143019 0.106324 0.019510
-0.091195 -0.038248 -0.117063
0.042974 -0.083218 -0.081741
0.013456 -0.476014 0.017291
-0.068361 -0.191550 -0.366936
-0.065932 -0.297475 -0.058447
-0.014921 0.200357 -0.133873
0.177665 -0.185393 -0.233158
-0.059976 0.338929 0.326913
0.027502 -0.226632 -0.192369
0.091524 -0.411470 -0.119302
-0.012527 -0.242010 -0.030601
-0.013252 -0.427731 0.000395
0.078264 -0.469536 0.009698
0.048621 0.006988 -0.014596
0.024930 0.109630 0.097959
0.009710 -0.246144 0.018938
-0.090495 -0.151132 -0.308661
-0.053607 -0.275141 -0.114867
-0.000504 0.201119 -0.169198
0.139133 -0.346419 -0.177836
0.178741 0.192999 0.035750
0.090746 -0.050096 -0.065153
0.078531 -0.402366 -0.084153
-0.065906 -0.053720 -0.001848
-0.030373 -0.343770 -0.055103
-0.018666 -0.414413 -0.016942
0.089255 0.063291 0.088250
-0.068132 0.334938 0.307608
0.088792 0.365954 0.068361
0.179243 0.228630 0.057501
0.054439 -0.377705 -0.104970
0.008634 -0.415270 -0.041888
-0.085007 -0.063035 -0.111860
0.035103 0.172331 0.018750
-0.068084 0.079791 0.022431
-0.042166 -0.373448 -0.006371
-0.037681 -0.173629 -0.107457
0.009057 0.321785 -0.065746
0.028616 -0.022884 -0.043422
-0.101257 -0.031190 -0.083572
-0.024079 0.097987 -0.039405
0.009706 -0.464585 0.015247
0.013267 0.254333 -0.003664
-0.142178 -0.275054 0.020698
0.199734 -0.141972 -0.224545
-0.091639 -0.065857 -0.305687
0.030232 -0.427317 0.035481
-0.096837 0.019138 -0.035566
0.089910 -0.243811 -0.121462
-0.101015 0.001221 -0.040331
-0.011438 -0.228011 0.120955
-0.023134 -0.176261 -0.077998
0.063761 -0.446795 0.009037
-0.021899 -0.225730 0.118363
0.117073 0.220594 0.084599
0.074970 -0.070682 -0.169630
-0.034077 -0.023151 -0.191465
0.094152 0.251927 -0.036275
-0.042533 0.101067 -0.013967
0.253682 0.229823 0.017326
-0.134667 -0.099094 -0.205401
-0.052119 -0.058174 -0.205252
-0.021315 -0.455249 0.001707
0.280982 0.293704 0.043063
-0.028436 -0.043033 -0.009912
-0.005783 -0.301091 -0.134615
-0.064872 -0.124156 -0.340490
-0.058670 0.083708 -0.056314
0.173826 -0.009052 -0.154169
-0.011854 0.026827 0.085472
0.167662 -0.136239 -0.229745
0.097219 0.336596 0.010790
0.138499 0.159258 0.087938
0.168672 0.161854 0.062774
0.002640 -0.378153 -0.083536
0.063031 0.021248 0.052252
0.007026 -0.345065 0.072901
0.162523 0.194934 -0.014068
0.082417 0.365612 0.101461
0.155148 0.131291 0.064541
-0.060929 0.328483 0.294548
0.044534 0.377438 0.101474
0.021262 -0.367936 0.032637
0.005158 0.029416 -0.144820
-0.117410 -0.253591 -0.000465
-0.078111 0.017309 0.018326
0.144744 0.224580 -0.028876
0.070765 0.263240 0.071649
0.117668 -0.384804 -0.134162
0.027293 0.270510 -0.082361
0.195575 -0.159602 -0.217727
-0.068111 -0.361181 0.015118
0.019804 0.250789 -0.023307
0.069519 0.301792 -0.005630
-0.093853 -0.063546 -0.304609
0.100528 -0.070987 -0.140522
-0.069655 -0.116755 -0.159335
-0.005603 0.293257 0.011137
0.011277 0.314938 -0.011790
0.036092 0.272395 -0.093361
-0.067217 0.006516 0.035338
-0.037388 0.074632 -0.075012
0.097211 -0.186885 -0.123989
0.000175 -0.412779 -0.054275
0.276923 0.185522 -0.045720
0.151136 -0.056611 -0.189390
-0.064193 0.091435 0.009958
0.001594 0.063415 -0.092416
-0.077030 -0.091255 -0.333428
-0.092014 0.032265 -0.072219
-0.020881 -0.220710 -0.053371
-0.041145 -0.208258 -0.124598
0.134079 0.101708 0.007150
0.045318 0.295395 0.101436
0.030458 -0.214905 -0.007332
0.049296 -0.448434 -0.064321
-0.068091 -0.127878 -0.345095
0.178824 0.317230 0.024949
0.082476 0.138871 -0.023558
0.020669 0.213833 -0.153332
0.118607 -0.340949 -0.167787
0.304255 0.258995 0.000797
-0.032072 -0.237920 0.129712
-0.151309 -0.260913 0.004217
0.028201 -0.034623 -0.062161
0.047908 -0.005697 -0.147380
0.104910 0.295785 -0.015442
-0.004175 -0.385367 -0.069510
-0.094295 0.034130 -0.019922
0.143222 0.172958 0.085605
-0.067858 -0.058735 -0.032163
0.029416 0.312804 0.100466
0.039193 0.008497 -0.130295
-0.090889 0.035760 0.001576
-0.054136 -0.165712 -0.169953
0.250274 -0.139412 -0.190068
-0.044882 0.076239 -0.070294
-0.095145 -0.018275 -0.108387
0.010144 -0.459650 0.015389
0.161927 0.170472 0.068935
-0.035262 -0.361224 -0.029849
0.018917 0.297852 0.176885
-0.005149 -0.194784 -0.209694
-0.074318 -0.084327 -0.145973
0.070772 0.259752 0.096926
0.050079 -0.449649 0.037907
0.021056 0.042489 -0.076687
0.191803 -0.163986 -0.231840
0.053865 -0.206929 -0.054195
-0.066176 -0.134456 -0.160248
0.096867 -0.394264 -0.178406
0.035370 -0.072920 -0.080177
0.008703 0.034818 -0.134484
0.173785 0.040423 -0.145926
-0.075238 -0.087240 -0.265882
-0.011821 0.292710 0.228009
0.192110 0.254925 0.051625
0.130842 0.271734 0.072223
-0.070088 -0.004702 0.022699
-0.060329 -0.077865 -0.230379
0.062220 0.191531 -0.002783
-0.023457 -0.446500 -0.008235
0.046325 0.172281 -0.153478
-0.101521 -0.129474 -0.227989
0.293866 0.344683 0.027171
0.049302 -0.465600 -0.064204
-0.035600 -0.310477 -0.089891
-0.044896 -0.364215 -0.015928
0.085072 -0.345844 -0.030285
0.179107 0.308314 0.009074
-0.090248 -0.068547 -0.226522
0.146411 0.315309 0.005252
0.060614 0.311512 0.008355
0.046532 0.297800 -0.038913
0.203077 0.298327 0.003374
0.112616 0.319261 -0.002452
-0.039636 0.186169 -0.183863
0.124207 -0.323549 -0.119731
0.089990 -0.165972 -0.152598
-0.052008 0.058649 0.055071
-0.000371 -0.450476 -0.001537
-0.058716 -0.175115 -0.351748
-0.010340 -0.276543 -0.152520
0.093508 -0.157549 -0.130972
-0.009834 0.130655 0.018215
-0.069353 -0.164076 -0.354881
0.048767 -0.494789 -0.013647
0.009678 -0.178083 -0.215917
-0.054971 -0.254146 -0.136799
0.076168 -0.497337 -0.041736
-0.038700 -0.067752 -0.214797
-0.079399 0.066334 0.007332
-0.078369 -0.142759 -0.202441
0.189483 -0.044207 -0.187534
0.112908 -0.391376 -0.144175
-0.045321 0.358761 0.269333
-0.051350 -0.106582 -0.235753
0.013514 0.320310 -0.032973
0.088015 0.357142 0.041136
0.043200 0.139159 -0.020801
0.018630 -0.253085 0.068907
0.038955 0.251371 -0.045596
0.161611 -0.404778 -0.137610
0.276097 0.309455 0.029837
-0.081734 0.061279 0.005456
0.200415 -0.083482 -0.196897
0.009779 0.366472 0.166607
0.055805 0.205882 0.041586
0.019772 0.310833 -0.113300
0.076993 -0.335252 -0.041258
-0.085941 -0.290574 0.001646
-0.042713 -0.400097 -0.019670
-0.100753 -0.181825 -0.386491
0.089721 -0.018065 -0.127959
-0.109413 -0.142144 -0.333646
0.131912 0.084660 0.034614
0.302710 0.265417 0.022317
0.118027 -0.430964 -0.180237
0.033656 -0.282632 -0.157492
0.164755 -0.402687 -0.141550
0.037416 -0.034010 -0.187012
-0.085694 -0.171319 -0.315443
-0.019671 0.096689 -0.042929
0.045478 0.168179 -0.156017
0.300513 0.150923 -0.038518
-0.065517 -0.226990 -0.348897
0.055572 0.004608 0.000503
0.305429 0.264282 0.012193
-0.085249 -0.053143 -0.070249
0.133910 -0.389828 -0.115138
0.033305 -0.347478 0.013701
0.049250 -0.035165 -0.080816
0.160404 0.144683 0.004206
0.171983 0.168152 0.005325
0.013529 -0.156751 -0.069989
-0.117350 -0.065369 -0.238337
-0.071671 -0.125226 -0.258516
0.082708 -0.149321 -0.101063
-0.089601 -0.065592 -0.226059
-0.011419 -0.046188 -0.029061
-0.058322 0.077179 0.038222
0.057899 0.105242 0.127970
0.288515 0.347573 0.042582
-0.039993 0.393298 0.278657
0.074208 -0.294029 -0.028597
-0.068252 -0.375444 0.009799
-0.062839 0.000917 0.036743
0.077849 -0.071146 -0.163424
0.013753 -0.178223 -0.041902
0.096337 -0.012283 -0.124881
0.046650 0.316744 0.020493
-0.078437 0.042975 -0.086618
-0.048407 -0.166792 -0.091997
-0.049718 -0.184676 -0.154020
0.054917 -0.122716 -0.092564
-0.037315 0.341043 0.239784
0.030434 -0.430411 0.039256
0.078613 0.361898 0.112996
0.039129 0.293390 0.186106
-0.090941 -0.267185 -0.012349
0.243436 0.328159 0.020083
-0.024267 0.348429 0.277600
0.028964 -0.193784 -0.209242
0.050988 -0.435837 -0.005139
0.088990 -0.339168 -0.064580
0.039056 -0.328475 -0.128436
-0.017813 -0.440816 0.007441
0.072263 0.209664 0.059552
0.072828 -0.394807 -0.037355
-0.011229 -0.163602 -0.058255
-0.024925 0.314198 0.271772
0.022446 0.188970 -0.125675
0.337157 0.186377 -0.016076
-0.020937 0.347165 0.210919
0.013548 0.328905 0.120438
0.092195 -0.175096 -0.143207
-0.031393 0.320687 0.232433
0.045090 -0.245310 -0.022907
0.036351 0.024404 0.073560
0.053089 0.182352 0.053991
-0.049557 -0.063058 -0.006496
0.056408 -0.272518 -0.005511
0.098037 -0.425098 -0.122123
0.204432 -0.110941 -0.158866
0.060250 -0.319333 -0.014404
0.176703 0.305562 0.072117
0.035066 0.239877 0.018345
-0.110072 -0.126503 -0.199050
0.136240 -0.363468 -0.178837
0.010752 -0.290467 -0.157782
-0.073491 -0.155539 -0.305002
0.040103 0.165640 0.055920
-0.078284 0.061530 0.017757
0.018197 0.029207 -0.132153
0.253808 -0.135379 -0.174327
-0.066157 -0.321034 -0.018571
-0.049239 -0.354633 -0.016757
-0.077095 -0.067748 -0.066769
0.125735 -0.382771 -0.109540
0.107698 0.313653 0.088586
0.042300 0.291181 0.026808
0.074803 0.070013 -0.013201
-0.092243 -0.201498 -0.347228
0.206883 0.331625 0.062546
0.278328 0.253239 -0.013680
-0.032013 -0.155602 -0.087822
0.037130 0.303966 0.144000
0.037701 -0.214468 -0.029222
0.061476 -0.368189 -0.062386
0.151578 -0.050800 -0.187599
0.199435 -0.012604 -0.168347
0.176164 -0.075357 -0.200407
0.183960 -0.126280 -0.219068
-0.022666 -0.244155 -0.161216
0.138446 -0.359334 -0.154941
-0.028356 -0.074005 -0.052693
-0.082552 -0.192926 -0.378333
0.048724 -0.024800 -0.093996
-0.076063 -0.309890 -0.005381
0.058859 0.142784 0.099942
0.094324 0.057428 0.004301
0.139708 -0.000863 -0.103819
-0.028304 0.189091 -0.182222
-0.056644 0.327169 0.280054
0.043075 0.067550 0.103718
0.223587 -0.094925 -0.171813
-0.012744 -0.227123 0.072376
0.029700 -0.186283 -0.022725
0.079776 0.300624 0.106362
0.286640 0.294704 0.008040
0.086844 0.044687 -0.007214
0.074981 -0.308689 -0.102394
0.090320 -0.092729 -0.138142
0.127909 -0.032830 -0.070838
0.107339 0.069860 0.002373
0.037836 0.012849 -0.040801
-0.031527 0.276208 0.006188
0.203134 -0.021217 -0.160439
0.142014 -0.037366 -0.049542
-0.058715 0.414298 0.286082
-0.015292 0.363918 0.206486
0.049398 0.176547 0.005463
0.015782 -0.339508 -0.116205
0.028971 -0.382080 0.032846
0.080657 -0.267917 -0.035516
-0.042262 -0.193597 -0.117834
-0.047238 -0.248235 -0.116065
0.049084 0.140674 0.096054
0.022295 -0.236591 -0.187121
0.042498 -0.203596 -0.050647
0.139929 0.204373 -0.029176
0.205980 0.337249 0.039119
0.303310 0.190447 0.009177
-0.089266 -0.301019 -0.003397
-0.055955 0.000983 -0.172147
0.130261 -0.402579 -0.151594
0.199020 0.296209 0.001811
0.071692 -0.309783 -0.026001
0.055249 0.202008 0.036205
0.017912 -0.249051 0.011421
0.017237 0.317316 0.209695
-0.078160 0.077000 -0.017419
0.174881 0.204700 0.005353
-0.026934 -0.418287 -0.021747
0.020734 -0.256300 0.062721
0.289713 0.190657 -0.034192
0.047643 -0.033671 -0.179939
-0.010928 0.264150 -0.101429
0.276100 0.336340 0.018891
0.079553 -0.308915 -0.060283
0.041022 0.002976 -0.070784
0.022872 0.088633 0.110748
0.068583 0.303504 0.120711
-0.063254 -0.095659 -0.308407
0.296684 0.337187 0.027038
0.285985 0.252473 0.032980
-0.112470 -0.111778 -0.252006
0.167504 0.311269 0.046067
0.086186 -0.087120 -0.161494
0.089100 0.330875 0.105086
-0.084614 0.002860 -0.119333
0.048221 -0.345572 -0.140952
-0.113860 -0.112284 -0.275613
-0.075316 -0.145588 -0.184598
0.004066 -0.293780 -0.149153
-0.041510 -0.203984 -0.121441
-0.051510 -0.342804 -0.006349
-0.035057 0.086458 -0.059134
-0.059601 0.402099 0.277031
-0.045064 0.098982 -0.016852
-0.045737 -0.181448 -0.121480
-0.064874 -0.318905 -0.003482
-0.112595 -0.095924 -0.230739
-0.007332 -0.269676 0.049258
-0.050744 -0.155110 -0.136281
0.069983 0.241109 0.056713
0.083151 -0.237054 -0.042115
-0.052090 -0.260145 -0.073905
0.174842 0.173904 0.022523
0.310955 0.170797 -0.034134
0.073997 -0.023619 -0.134695
0.065054 -0.199128 -0.184669
0.219872 -0.140610 -0.217170
0.016507 0.153052 -0.179128
0.193921 0.236483 0.023712
0.050664 -0.255499 -0.008500
0.319382 0.188202 0.003022
0.110821 0.243156 0.084955
0.207116 0.303398 0.079110
-0.021311 0.312281 0.212080
0.049501 -0.441507 0.038678
0.125145 -0.373789 -0.100644
-0.048709 0.188883 -0.196541
0.070264 -0.245772 -0.016047
0.083395 -0.142547 -0.101525
0.030440 -0.395315 0.043476
0.005081 -0.249602 -0.174649
-0.095112 -0.034212 -0.102740
-0.121972 -0.053178 -0.267344
-0.072417 -0.152890 -0.188593
-0.096184 -0.033672 -0.317183
0.158517 -0.055904 -0.196644
0.071022 -0.179472 -0.083451
0.010964 0.255408 -0.014415
0.171595 0.016685 -0.148570
0.145113 -0.057786 -0.115243
0.088169 -0.431615 -0.004651
-0.036572 0.186184 -0.184424
0.227239 0.324987 0.071727
0.017761 0.190286 -0.125962
-0.075236 -0.104470 -0.165288
-0.039762 -0.249835 -0.106634
0.045776 0.154988 -0.138552
-0.006791 -0.032123 -0.006451
-0.071130 -0.102319 -0.335670
0.079255 -0.303712 -0.051744
0.283556 0.257236 0.035111
0.052794 0.264668 0.031082
0.038930 -0.442573 0.044850
-0.010397 0.320836 0.254941
-0.005782 -0.306530 -0.129731
0.024268 -0.448703 -0.033374
-0.129494 -0.089351 -0.291356
-0.060527 -0.126465 -0.137828
0.072064 0.284727 -0.029842
0.014300 -0.385543 0.020520
-0.062671 -0.092793 -0.093264
0.006932 -0.213556 0.073107
0.039929 -0.445894 0.024086
0.054820 0.297913 0.002420
-0.069423 -0.136958 -0.348901
0.048185 -0.439905 0.042085
0.085321 0.287672 -0.026862
-0.046015 -0.146938 -0.098410
0.109782 -0.376454 -0.092808
0.204265 0.309928 0.088075
0.196372 -0.128255 -0.215277
-0.063967 -0.241449 -0.084360
0.000658 -0.318593 0.035599
0.170011 0.210715 -0.007691
0.149299 -0.073787 -0.177817
0.172663 -0.029751 -0.112545
0.007411 -0.118031 -0.075462
-0.106189 -0.115341 -0.260715
0.113842 0.082205 -0.007970
0.315826 0.149776 -0.017368
-0.013037 0.338676 0.268830
0.103836 0.110311 0.100884
0.033657 0.339937 -0.095440
0.028953 -0.165306 -0.216455
-0.038606 -0.316150 0.025225
0.219871 -0.108795 -0.159519
0.006456 -0.101159 -0.076808
-0.048801 -0.094866 -0.041941
0.046807 -0.213113 -0.047600
-0.082608 -0.136558 -0.222676
0.003455 0.082194 0.100292
0.143888 0.097315 0.047770
0.029533 -0.008480 0.042778
-0.117909 -0.211075 -0.385027
0.254568 0.275395 0.048654
-0.080240 -0.048702 -0.163426
-0.076823 -0.144234 -0.195585
0.088336 0.157789 -0.023886
0.008708 -0.185164 -0.055461
-0.034795 0.104898 -0.016920
-0.051908 -0.241470 -0.054951
-0.029368 0.022847 -0.160427
0.089746 -0.140193 -0.147313
0.007314 -0.235001 0.095495
0.247547 -0.116204 -0.191992
0.177074 0.226076 0.003468
0.083575 0.198343 0.090333
0.132229 0.134644 -0.017326
0.163252 0.224754 0.064872
0.051835 0.299791 -0.030727
0.285749 0.277006 0.039544
0.156170 0.185719 -0.019564
0.116705 0.325646 0.082467
0.124405 -0.044556 -0.090556
0.268194 0.187692 -0.008244
-0.074599 -0.316080 0.002000
0.068628 0.261438 0.092517
0.138626 -0.336099 -0.180082
0.126249 0.117464 0.085228
0.034452 0.253586 -0.102491
-0.104498 -0.111145 -0.337775
-0.030379 -0.309905 0.004907
-0.104789 -0.110550 -0.271043
-0.123350 -0.070300 -0.295571
0.196855 0.018912 -0.158777
-0.133280 -0.273275 -0.007001
-0.072433 -0.040743 -0.014751
-0.002954 -0.466887 -0.005910
-0.047968 -0.189817 -0.152618
0.041429 0.215688 -0.133381
0.135788 -0.328055 -0.188498
0.061276 0.121887 -0.022743
0.044179 0.098879 -0.027552
0.151608 0.146055 -0.010646
0.046197 0.271087 -0.048220
0.094820 -0.362953 -0.171871
-0.027359 0.312650 0.226931
0.162372 -0.022024 -0.167323
0.122726 -0.387861 -0.111091
0.125394 -0.360405 -0.103926
-0.013403 -0.235469 -0.339125
0.021598 0.080970 -0.044136
0.046209 -0.030580 -0.178921
0.008815 -0.079102 -0.217323
0.028404 -0.168531 -0.216218
-0.028742 -0.048271 -0.019625
0.038269 -0.380191 -0.098350
-0.012733 -0.234622 0.083644
0.085861 -0.287515 -0.086223
-0.034568 -0.291525 -0.119215
0.078578 0.071554 -0.011237
0.143903 -0.054162 -0.103772
0.300653 0.169841 -0.017193
0.015476 0.144798 0.022241
0.034346 0.271124 -0.090777
-0.022159 -0.197047 -0.193973
0.140399 0.154184 0.086370
-0.047128 -0.186704 -0.134552
0.181720 0.211509 0.007327
0.002730 -0.358519 -0.087524
-0.056968 -0.138941 -0.139961
0.183010 -0.064588 -0.152346
-0.042285 -0.233129 -0.108052
0.096047 -0.189684 -0.068874
0.063166 0.275616 -0.039469
0.077169 0.107223 0.112541
0.024710 -0.016768 -0.008595
0.033608 -0.030051 -0.187519
0.027463 0.135840 -0.010480
0.078162 -0.206794 -0.039239
-0.059288 -0.068003 -0.204903
0.009211 0.337996 0.120430
-0.053541 0.096203 0.016804
0.025202 0.315760 -0.022962
0.121383 -0.342560 -0.131483
0.107221 0.271053 -0.027400
0.019843 0.275457 -0.050079
0.089178 -0.212824 -0.142712
0.142302 -0.053333 -0.144715
0.009125 0.173515 -0.166219
0.116180 -0.382452 -0.130303
0.029611 -0.472642 -0.059624
-0.085735 -0.152544 -0.366046
0.037753 0.290347 -0.090237
-0.022751 0.229953 -0.131081
-0.000267 -0.029147 -0.199896
0.012866 -0.219160 0.051708
-0.067644 -0.110491 -0.290931
-0.121544 -0.078158 -0.226315
0.060717 -0.276805 -0.146539
0.007880 0.019456 0.069659
0.168308 -0.028792 -0.176570
0.026458 0.212212 -0.150500
0.004100 0.303826 0.232320
0.100933 0.230923 0.094139
-0.040033 0.388289 0.254653
-0.049844 -0.178423 -0.168330
0.190296 -0.041298 -0.147398
-0.034972 -0.077468 -0.037373
0.122961 -0.337743 -0.104369
0.020346 -0.080686 -0.074134
0.055556 -0.266811 -0.006121
-0.012221 0.283883 -0.086047
0.120754 -0.423843 -0.167013
-0.013937 -0.238173 0.097490
0.124394 -0.001326 -0.103321
0.011343 -0.470667 0.010494
-0.095089 -0.274095 -0.004651
0.113141 -0.034473 -0.067721
-0.010460 -0.220988 0.070508
0.004262 0.274961 -0.067932
0.310666 0.171192 -0.008337
0.087785 0.363961 0.058090
0.093344 -0.330397 -0.103231
-0.070173 -0.264110 -0.071036
0.143353 -0.054732 -0.129140
0.168577 -0.128796 -0.221195
-0.018754 -0.367261 -0.031589
-0.082709 -0.086398 -0.178039
0.040726 -0.298343 -0.140853
0.075747 -0.258358 -0.146313
-0.049847 -0.241910 -0.361386
-0.081203 0.045691 -0.077023
0.282763 0.226151 0.031032
-0.047906 -0.088189 -0.015689
-0.026112 -0.224157 -0.049641
0.105179 0.074632 0.084256
-0.061257 -0.147400 -0.343459
0.056301 -0.233486 -0.018634
-0.028447 0.114636 0.005838
0.024714 0.276922 -0.050305
-0.063751 -0.068229 -0.021384
0.028576 -0.463799 -0.061514
0.088619 -0.391221 -0.139676
-0.010986 -0.352262 -0.078237
0.085420 -0.284399 -0.098145
-0.036282 0.082820 -0.063858
0.051747 0.366035 0.065344
0.094777 -0.174358 -0.123886
0.054693 0.146825 -0.149428
0.075125 -0.347432 -0.039993
-0.066456 -0.255244 -0.075571
0.072878 -0.418766 -0.036095
0.147392 0.101692 0.049864
0.093598 -0.020775 -0.136328
0.083744 0.262694 0.102883
0.252747 0.268215 0.041734
0.178426 0.024665 -0.140215
-0.072782 -0.293634 -0.009434
-0.098438 -0.172567 -0.380354
0.061479 -0.393927 -0.096685
0.075277 -0.160513 -0.092216
0.084305 0.364021 0.055722
0.208389 0.331794 0.109549
0.024207 0.183131 -0.134548
-0.020177 0.239699 -0.127255
0.026217 0.286569 0.182510
-0.043578 0.285142 0.013729
-0.024466 0.331308 0.281470
-0.039472 -0.121414 -0.099818
0.192367 0.027947 -0.146538
0.039658 0.333388 -0.093067
0.020353 0.318196 -0.040128
-0.072981 0.077878 0.005149
0.001231 0.024429 0.075449
0.088512 -0.216493 -0.144661
-0.091455 -0.117112 -0.284145
0.140413 0.140688 0.083924
-0.070874 -0.270678 -0.068380
0.130003 0.086579 0.020952
0.161077 0.310518 0.043223
0.249525 0.288440 0.001999
0.013949 0.343089 0.095636
-0.070038 -0.151424 -0.182838
0.004219 -0.279156 -0.162563
0.026753 -0.469218 -0.059287
-0.004914 0.310607 -0.005441
0.089753 -0.211466 -0.081191
-0.076839 -0.057175 -0.163941
0.064277 -0.341071 -0.129099
0.034188 -0.402337 0.044842
0.034232 0.337835 0.183897
-0.028457 0.061890 0.076039
-0.077954 0.067196 -0.045520
0.132714 -0.385572 -0.176026
-0.057046 0.026446 -0.137894
-0.071605 -0.063097 -0.168457
-0.026466 0.303224 0.225957
0.013562 0.083969 0.122575
-0.091450 -0.286590 0.007164
-0.125450 -0.112820 -0.200112
0.130824 0.082734 0.047357
0.006735 -0.350088 0.032609
0.179007 -0.020288 -0.141553
0.001342 0.273786 -0.073447
0.306898 0.224860 0.019371
0.002676 0.020075 0.070717
0.110636 -0.013797 -0.093179
0.077126 0.033756 0.064828
-0.046314 -0.110566 -0.230100
-0.118946 -0.229314 -0.406801
-0.039824 -0.255537 0.016205
0.019217 -0.027169 -0.194344
0.188966 -0.136325 -0.221935
0.091274 -0.473843 -0.040837
0.152179 -0.376691 -0.141652
0.155775 -0.406649 -0.154501
-0.067293 -0.059726 -0.020736
0.046444 0.296824 0.063670
0.071449 -0.479104 0.004673
-0.060566 0.089622 -0.009817
0.159458 -0.102396 -0.173650
0.058750 -0.475051 0.011817
0.025079 -0.149012 -0.043566
0.212894 0.334709 0.030086
0.015903 0.065067 -0.058169
0.307362 0.252988 0.011805
0.151182 0.136529 -0.004867
0.058171 0.207508 0.041536
0.030651 0.288511 -0.051283
0.003787 -0.040254 -0.036390
0.024713 0.210040 -0.153041
-0.009031 0.082381 0.087893
-0.102727 -0.071393 -0.326514
0.091445 -0.303164 -0.061589
-0.102309 -0.054006 -0.328761
0.029432 0.315983 0.075419
-0.085798 0.357509 0.348479
0.089329 -0.467947 -0.038265
0.085914 -0.074606 -0.084764
-0.141556 -0.075062 -0.260178
-0.096666 0.022847 -0.051970
-0.045840 -0.235737 -0.042560
0.253089 0.243586 0.025023
-0.066278 -0.134861 -0.155409
0.028169 -0.407190 -0.003923
-0.093915 -0.298296 -0.032759
-0.019706 0.368365 0.268454
-0.146945 -0.271485 0.029414
0.031520 0.305831 0.095088
0.247491 0.318908 0.013625
0.218057 0.262424 0.040317
0.012839 -0.179495 -0.058350
0.071087 -0.495788 -0.080399
0.268627 0.190359 -0.042618
-0.034499 0.362732 0.237600
0.014891 -0.298147 0.044294
-0.075323 -0.165548 -0.360119
0.145047 0.143233 0.080586
0.040494 0.092298 0.143558
-0.053682 -0.040076 -0.194489
0.069153 0.261800 0.084568
0.073291 0.361424 0.047428
-0.042915 -0.321235 -0.066526
0.305246 0.315853 0.035140
0.084689 -0.201307 -0.155405
0.123812 -0.412442 -0.183843
0.098868 0.078296 0.000335
0.246553 0.244323 0.012963
0.069840 -0.219640 -0.174234
0.254010 0.319084 0.016857
0.055165 0.320136 0.014476
0.067692 0.281473 0.113782
-0.058350 0.325975 0.292017
0.210740 0.330381 0.023467
-0.037103 0.310870 0.268477
0.131261 -0.348781 -0.135270
0.069165 -0.464255 -0.036732
-0.006638 0.126139 0.007210
0.036111 0.025857 -0.065556
0.010577 -0.417284 -0.066859
-0.095377 -0.128424 -0.221700
0.038969 0.119094 0.102580
0.105079 -0.487238 -0.037136
0.053597 -0.339819 -0.113488
0.083416 -0.232314 -0.068989
0.231147 0.267303 0.039492
0.031925 0.168620 -0.149005
0.042019 0.155173 -0.004721
0.127417 0.330345 0.056717
0.162847 0.136214 0.030830
0.039913 -0.295146 0.015422
0.077147 -0.246287 -0.152943
-0.009578 -0.307049 0.032436
0.019715 -0.412202 -0.019064
-0.060016 -0.117994 -0.129032
0.037141 -0.327766 -0.126210
0.027682 -0.384800 0.008866
-0.008061 -0.348120 0.026739
-0.084053 -0.198591 -0.383044
0.249164 0.235419 0.011744
0.127905 0.216764 -0.030156
0.104506 -0.359731 -0.150801
0.033725 -0.440144 -0.064811
0.003783 0.276470 -0.055425
0.071182 0.373763 0.106044
0.177143 0.175779 0.021165
0.002662 -0.283758 0.045299
0.284435 0.243319 -0.015934
0.110965 0.291960 0.085108
-0.076420 -0.121777 -0.348039
0.214607 -0.143643 -0.189885
-0.071698 0.396298 0.296071
0.106970 -0.362319 -0.163180
0.056085 0.200529 0.043423
0.110870 0.075608 0.080269
0.122336 0.003031 -0.122159
0.077757 -0.493271 -0.048608
-0.052339 -0.199851 -0.360789
0.030079 0.100882 -0.030172
-0.003279 -0.237044 -0.184600
-0.036895 -0.121171 -0.224277
-0.075997 -0.033420 -0.012852
0.077665 -0.364071 -0.172054
0.253837 0.302463 0.006161
0.076658 -0.260675 -0.142612
0.096286 -0.372222 -0.093262
0.083799 0.183267 0.094790
0.051381 -0.392454 -0.036125
-0.086816 -0.197213 -0.383749
0.048259 0.232363 -0.022234
0.080254 -0.207798 -0.158365
-0.016121 0.327570 0.201253
0.013015 -0.082981 -0.217481
-0.061750 -0.066750 -0.191273
-0.017150 -0.054087 -0.036830
0.094475 -0.212880 -0.108322
-0.061127 -0.019990 0.045008
0.082773 0.286329 0.101644
-0.020706 -0.232500 0.127280
0.031167 0.306050 -0.076398
-0.011845 0.104172 -0.031234
0.001193 0.177886 -0.158502
0.013683 -0.378156 -0.088046
0.050523 0.126172 0.105745
0.018975 -0.275914 0.064008
-0.032121 -0.290689 0.004676
0.068106 -0.020599 -0.143116
-0.096121 0.015510 -0.016693
0.027391 -0.378474 0.014354
0.120069 0.073687 0.019461
-0.072402 0.021261 0.028546
0.069643 0.228072 0.050160
0.212418 0.333254 0.083194
0.102801 -0.419630 -0.125555
-0.109751 -0.118577 -0.302091
-0.024288 -0.072068 -0.217179
0.088854 -0.163422 -0.102893
0.105039 0.055266 0.027805
0.068199 0.338050 0.128756
0.030168 0.009472 -0.151812
-0.070592 -0.004235 -0.156753
-0.074442 0.038138 -0.110496
0.088290 -0.173343 -0.162284
0.033913 0.171318 -0.155836
-0.007133 0.368965 0.196129
0.166950 0.261923 -0.011741
-0.075699 -0.201893 -0.330093
0.085953 0.235894 -0.033095
0.177354 0.234401 0.000903
0.059671 -0.377898 -0.039062
0.059437 0.303211 0.136811
-0.006305 -0.119893 -0.077486
0.254802 -0.130777 -0.172620
-0.016472 -0.384646 -0.037769
0.004098 -0.423977 -0.054640
-0.055304 0.014900 0.052371
-0.061705 -0.164802 -0.312864
-0.005862 -0.344671 -0.093785
0.054829 0.045668 0.084242
0.236300 0.279752 0.018782
0.161972 -0.091586 -0.163296
0.028391 0.309775 0.124513
-0.035608 -0.335117 -0.058402
-0.035926 -0.394812 -0.003638
0.176306 0.253033 0.060128
-0.019228 -0.001075 0.060346
0.278986 0.321784 0.034289
-0.013944 0.027256 0.087964
0.039602 0.304111 0.086828
-0.059104 -0.241606 -0.073381
-0.118313 -0.078624 -0.224361
-0.011857 0.259744 -0.140775
0.038036 -0.103430 -0.078434
0.123585 -0.043927 -0.048484
0.037680 -0.446265 0.018588
0.066634 -0.274409 -0.142828
-0.027720 -0.196665 -0.338538
0.023774 -0.126907 -0.221776
-0.097010 -0.038802 -0.323922
0.008027 -0.421785 0.025039
-0.036455 -0.181439 -0.105698
0.016533 0.009529 0.060870
0.036185 -0.458538 0.028858
0.044461 -0.000124 0.001839
-0.060257 0.035236 0.045757
0.144690 0.285655 -0.011599
0.038593 -0.458689 0.030598
0.109272 -0.039580 -0.148281
0.019791 -0.411530 -0.034388
0.041669 -0.178516 -0.044394
0.132989 0.308690 0.067460
0.036535 -0.212213 -0.044764
0.017720 0.319279 -0.043357
0.041198 -0.012598 -0.166876
0.042705 -0.138132 -0.080085
0.075236 0.062612 -0.011414
0.018168 -0.275042 0.071055
0.042519 -0.009475 -0.065926
-0.048704 0.004236 -0.172508
-0.063577 -0.244906 -0.088901
0.100693 0.261341 -0.030033
0.085722 -0.162905 -0.100998
0.024937 0.358228 -0.070702
0.041965 0.024259 0.073498
0.048306 -0.440367 -0.062362
0.181318 0.199997 0.047383
-0.123337 -0.099986 -0.298857
-0.046410 0.320996 0.264525
0.037504 -0.009970 -0.021519
-0.043764 0.291766 0.008004
-0.010320 -0.265196 -0.159344
-0.032959 -0.214811 -0.180910
-0.068643 -0.018069 0.016152
-0.067859 -0.047920 -0.180984
-0.108648 -0.126714 -0.210054
0.066671 -0.431263 0.000472
0.171881 0.219070 -0.004953
0.192198 0.275599 -0.001368
0.109048 -0.394123 -0.151401
0.163820 0.313928 0.032408
0.051417 0.002901 0.021640
0.272930 0.198958 0.009096
0.005808 0.346359 0.131944
0.066115 0.246942 0.046846
-0.003789 -0.140713 -0.070292
-0.068123 -0.226138 -0.359974
-0.048217 -0.191896 -0.064952
0.200059 0.015261 -0.154712
-0.066802 -0.067668 -0.182000
0.071780 -0.240892 -0.165099
-0.022266 -0.366295 -0.026777
0.079149 -0.019265 -0.122598
0.117237 0.177766 -0.027767
-0.090549 0.003104 -0.012426
0.033864 0.076902 0.124237
0.095348 0.297954 -0.018999
-0.007222 -0.231817 0.120081
0.043840 0.307646 0.034961
0.074092 -0.088877 -0.090091
0.293827 0.145004 -0.036901
-0.008371 0.383121 0.247479
0.068753 -0.152408 -0.092028
-0.020608 -0.011978 0.044467
0.301392 0.293062 0.027015
0.031608 0.347400 0.193404
0.114047 -0.369433 -0.092024
0.032302 -0.401366 -0.066353
0.157173 0.310201 0.004718
0.173621 0.156810 0.046239
0.084365 -0.026459 -0.137896
0.060954 0.167936 -0.141711
0.204159 0.269146 0.007441
-0.003872 0.190040 -0.143142
-0.071027 -0.275256 -0.065365
0.222607 0.265099 0.031696
0.034094 0.285515 -0.106106
0.027504 0.356233 0.199937
0.028718 0.338442 0.198770
-0.029403 -0.116956 -0.224962
-0.006395 0.027686 -0.152533
0.133657 0.150218 0.092804
0.133188 -0.352067 -0.156139
0.072896 -0.228456 -0.171296
0.137635 -0.045551 -0.061386
0.104286 0.065804 0.071679
-0.046232 -0.216406 -0.338135
0.035826 0.145853 -0.007648
0.262645 -0.134754 -0.174587
0.040876 0.377895 0.115368
-0.055768 -0.253160 -0.362575
-0.108360 -0.059901 -0.287272
0.077006 0.096592 -0.016766
0.064208 -0.493269 -0.053632
-0.012749 -0.294324 0.033808
0.074794 0.338791 0.015819
0.131192 0.229264 0.078200
-0.055251 0.190287 -0.186919
0.329897 0.194899 -0.013334
-0.019744 -0.282537 -0.135508
0.018735 -0.408962 -0.031217
0.011179 -0.352844 0.079079
0.101560 0.054073 0.058121
0.004393 0.022259 0.072515
0.075035 0.275223 -0.033295
-0.007319 -0.098627 -0.073445
0.051143 -0.247815 -0.002434
0.049091 0.154002 -0.017659
0.031697 0.127489 0.092255
-0.038702 -0.291794 -0.113301
0.122682 0.078313 0.016505
-0.054926 -0.220513 -0.369701
0.000366 -0.392103 -0.069396
-0.087606 0.012681 -0.108509
0.141062 -0.382855 -0.171421
0.025610 -0.246048 0.019886
-0.089809 -0.062478 -0.331201
-0.030907 0.391053 0.264448
0.109156 0.342778 0.083908
0.069989 -0.252951 -0.157820
0.010315 -0.400197 -0.006969
-0.009312 0.163046 -0.182667
-0.014064 -0.116313 -0.226429
0.029281 0.314557 0.071633
-0.027422 0.390715 0.250950
0.108670 -0.379031 -0.099497
-0.004663 -0.336854 0.101587
-0.018297 0.371838 0.266401
-0.049008 -0.280769 -0.061835
-0.050437 0.039007 0.059225
0.044167 0.301522 -0.020277
-0.022233 -0.230184 -0.176602
0.094900 0.042542 0.018310
0.064791 -0.499295 -0.041777
0.007808 0.057818 -0.091816
0.056924 -0.381672 -0.063525
0.283708 0.162959 -0.043342
-0.000364 -0.212129 -0.037595
-0.067729 -0.073887 -0.187922
0.048714 0.136877 -0.017128
-0.004539 0.066290 -0.078148
0.093284 -0.184810 -0.137978
0.294249 0.283637 0.031429
-0.091805 -0.061474 -0.264735
-0.066641 -0.063805 -0.039734
0.158308 0.128853 0.055569
-0.045823 0.050560 -0.111817
-0.008560 0.317695 0.250732
0.016169 -0.428897 -0.066040
0.007607 -0.210205 -0.024206
-0.101648 0.010443 -0.053527
