-0.210468 -0.129292 0.130799
0.068531 0.462480 -0.253921
0.106875 0.089166 -0.102911
-0.210285 -0.351168 0.193922
0.037468 0.280221 -0.303199
-0.178701 0.056726 -0.021916
0.040395 0.290929 -0.339699
0.271118 0.380018 -0.180459
-0.220512 -0.269543 0.048478
-0.268666 -0.213344 0.214434
-0.185341 -0.220551 0.233913
-0.327275 -0.323913 0.185770
0.010530 0.089248 -0.222403
0.063342 0.331640 -0.152556
0.051521 0.096722 -0.222341
-0.134794 0.079739 0.019251
-0.131386 -0.022712 -0.011115
-0.326040 -0.237352 0.231975
-0.015547 0.174119 -0.131953
0.213835 0.135921 -0.371476
0.027838 -0.015276 -0.179125
0.161194 0.252135 -0.427681
0.131468 0.123316 -0.431684
0.167478 0.155395 -0.516204
-0.001377 0.436950 -0.253901
-0.253828 -0.344680 0.110480
-0.013023 0.425915 -0.242218
-0.271968 -0.137134 0.087480
0.240829 0.331137 -0.285065
0.032045 0.072213 0.019341
-0.046189 -0.077446 0.053542
-0.006436 0.235506 -0.175877
0.002722 0.278910 -0.227238
0.063510 0.054252 -0.126511
-0.038674 0.464040 -0.349938
-0.112249 -0.006568 0.051425
0.393719 0.345773 -0.090691
-0.111585 0.048626 0.037518
0.067728 0.076021 -0.210873
-0.250425 -0.228020 0.212487
-0.265244 -0.119198 0.086592
0.059483 0.255985 -0.344721
-0.005644 0.292195 -0.260132
-0.157854 -0.086706 0.138390
0.300991 0.387878 -0.141138
-0.126727 -0.213000 -0.005009
0.048175 0.300071 -0.362342
0.285050 0.329327 -0.097922
-0.088845 -0.193282 0.065547
0.266342 0.171963 -0.337283
0.115073 0.070359 -0.385132
0.104746 0.130766 -0.412561
-0.001862 0.453853 -0.251355
-0.035061 -0.027700 0.037662
0.257511 0.170166 -0.333051
-0.191664 -0.340772 0.193245
0.173701 0.453866 -0.185640
-0.294955 -0.308862 0.159276
-0.121870 0.136333 -0.055766
-0.030384 0.378489 -0.258768
0.067866 0.392571 -0.357884
0.160832 0.149021 -0.189788
-0.022155 0.078400 -0.034844
0.128599 0.411449 -0.280084
0.305192 0.273624 -0.198164
-0.015674 0.025179 -0.133636
-0.031205 0.533611 -0.239526
0.158677 0.196203 -0.427689
0.209668 0.389130 -0.237593
0.194789 0.136420 -0.484493
-0.057646 0.376050 -0.278649
-0.169138 -0.280728 0.099304
0.007601 0.228642 -0.148409
0.419143 0.288493 -0.133351
0.130316 0.285929 -0.440653
-0.020760 0.311963 -0.263757
0.294675 0.259344 -0.050424
0.092227 0.389518 -0.340397
-0.226113 -0.194599 0.180630
-0.043698 0.504062 -0.265878
0.089037 0.265840 -0.430038
-0.129379 -0.032555 -0.089837
0.024303 0.187790 -0.076440
0.187697 0.151385 -0.432221
-0.241769 -0.316943 0.132105
-0.088333 0.115297 -0.048998
0.096126 0.138122 -0.255044
-0.322070 -0.293157 0.248414
0.069915 0.117020 -0.346663
0.166314 0.190486 -0.514279
-0.059325 -0.103098 0.008396
-0.114560 -0.114677 0.113128
-0.200123 -0.195358 0.184288
0.042593 0.398621 -0.205634
-0.164218 -0.127750 0.150011
0.090129 0.287067 -0.144444
-0.022555 0.203617 -0.163318
-0.059622 -0.059688 -0.153022
-0.117365 0.060520 0.042828
0.071104 0.417862 -0.322380
-0.044810 0.330658 -0.217047
0.163927 0.293796 -0.400928
0.284669 0.210158 -0.289491
0.036124 0.109439 -0.229618
-0.155606 -0.241434 0.068721
-0.220767 -0.241860 0.044793
0.379734 0.375005 -0.106233
0.024817 0.307585 -0.161115
0.063244 0.319508 -0.152849
0.132593 0.264882 -0.422333
0.157488 0.179082 -0.441407
0.014018 0.382391 -0.178969
0.213135 0.121218 -0.419623
-0.030821 0.407198 -0.175034
-0.192906 -0.110999 0.144724
0.147756 0.468905 -0.189041
0.072659 0.128281 -0.019103
-0.061015 0.470243 -0.310003
-0.133973 -0.228003 0.181032
0.324689 0.253004 -0.161417
0.037092 0.497599 -0.241413
0.062086 0.100971 -0.088782
0.199913 0.200416 -0.114191
0.034003 -0.032531 -0.025979
-0.002521 -0.078810 -0.061384
-0.200826 -0.171173 0.161946
0.351061 0.374019 -0.070716
0.166473 0.237134 -0.452548
0.087839 0.134179 -0.320120
-0.119068 -0.189994 -0.038671
0.295780 0.213478 -0.388653
0.006188 0.462961 -0.321248
0.065793 0.294994 -0.395170
-0.032427 0.049484 0.041434
0.049595 0.203949 -0.327526
0.005592 0.093602 -0.222003
0.051832 -0.002328 0.014592
-0.115888 -0.158887 0.009332
0.232514 0.310578 -0.083858
-0.119719 0.023086 -0.083420
0.347006 0.403261 -0.093025
0.312069 0.226071 -0.130038
-0.037102 0.125503 -0.085927
-0.195471 -0.185897 0.007185
0.213822 0.337667 -0.294251
0.202127 0.148613 -0.228892
0.176966 0.363609 -0.299313
0.125859 0.151569 -0.101298
0.064487 0.118441 -0.071374
0.108024 0.119260 -0.418332
-0.303924 -0.340316 0.136800
-0.272538 -0.236045 0.208896
0.155429 0.197222 -0.462316
0.066063 0.279206 -0.143300
0.359109 0.289895 -0.134301
-0.304653 -0.221455 0.169237
0.053412 0.327637 -0.414896
-0.086827 -0.129028 0.069140
-0.007763 0.114437 -0.194407
0.085216 0.399486 -0.333693
-0.002139 0.195919 -0.090028
0.032711 0.241930 -0.302522
0.307289 0.221250 -0.103078
0.360945 0.313863 -0.201711
-0.078466 0.144148 -0.100204
0.235032 0.115282 -0.469349
0.043175 0.084118 -0.067207
-0.275434 -0.222228 0.199623
0.427295 0.301542 -0.148482
0.280122 0.163569 -0.466689
0.178521 0.355255 -0.140317
0.131288 0.428946 -0.164579
0.288836 0.368461 -0.134926
-0.179164 -0.275431 0.176776
0.152083 0.261924 -0.109271
-0.038880 0.361423 -0.182713
-0.090385 -0.079817 -0.094187
0.314354 0.333214 -0.110710
0.018495 0.308324 -0.278663
-0.109193 -0.208473 0.161937
0.157638 0.143677 -0.197864
0.034758 0.373824 -0.411214
-0.122770 -0.065932 -0.037991
0.334414 0.398161 -0.104976
-0.032571 0.399008 -0.227394
0.056099 0.159536 -0.260229
0.303967 0.173622 -0.365670
0.096828 0.171066 -0.054410
-0.112730 -0.209928 0.170572
-0.188161 -0.279727 0.128396
0.177653 0.074682 -0.395879
0.135228 0.106062 -0.313225
-0.300917 -0.245864 0.154168
0.315150 0.234654 -0.231647
-0.223933 -0.282371 0.235695
0.159645 0.165702 -0.145729
0.016358 0.384302 -0.365278
-0.295636 -0.255020 0.163407
0.045119 0.270129 -0.138109
-0.039119 0.457517 -0.285642
0.022458 0.249971 -0.283026
0.188860 0.201018 -0.133390
-0.018995 0.028785 0.075212
0.158507 0.181005 -0.502758
-0.092210 -0.168209 0.059050
-0.248335 -0.334871 0.129550
-0.142891 0.028273 -0.010896
0.255548 0.201259 -0.266348
-0.340658 -0.226713 0.222761
0.079312 0.118429 -0.025487
-0.101457 -0.060477 -0.091685
-0.212015 -0.211798 0.028009
-0.299138 -0.343904 0.130420
-0.219504 -0.106032 0.055184
0.061773 0.125569 -0.066970
-0.027989 0.386064 -0.249227
-0.005333 0.436338 -0.204208
0.399937 0.350302 -0.120360
0.115591 0.392889 -0.315493
-0.357712 -0.292634 0.219756
-0.015227 -0.060157 0.020719
0.031567 0.069791 -0.043296
-0.296833 -0.355932 0.161016
-0.166361 -0.072938 0.115982
0.185457 0.161091 -0.188691
0.031909 0.244057 -0.131517
0.243981 0.149792 -0.516455
0.200687 0.115178 -0.375702
-0.097380 -0.064234 -0.044081
0.046187 0.022480 -0.015969
0.022891 0.400347 -0.308257
0.025185 0.348489 -0.158576
-0.171483 -0.170307 -0.017437
0.035420 0.303897 -0.164515
-0.127452 -0.167199 -0.033699
-0.128027 -0.000890 -0.003645
0.021180 0.062409 -0.010262
-0.041952 0.025013 0.074259
-0.000757 -0.093245 -0.037105
0.329214 0.209196 -0.291325
0.328602 0.225655 -0.085169
-0.184577 -0.197402 0.186717
-0.156642 -0.175334 -0.024545
-0.154004 -0.269495 0.211756
-0.053018 -0.019363 -0.151291
0.186442 0.179998 -0.160116
0.159990 0.455771 -0.195241
-0.138066 -0.035274 -0.094276
-0.224881 -0.086429 0.124626
0.031889 0.017759 -0.164631
0.150502 0.131212 -0.202990
-0.089389 -0.166469 0.145277
-0.066628 -0.037752 -0.147006
-0.013631 0.204261 -0.139753
0.013430 0.355126 -0.157237
0.181897 0.209873 -0.493487
0.111048 0.446539 -0.242534
-0.148025 -0.267210 0.215915
0.147979 0.338261 -0.155517
-0.296052 -0.237371 0.148662
0.019794 0.355361 -0.370421
0.359924 0.353424 -0.151526
0.039932 0.144265 -0.247301
-0.246243 -0.180186 0.172732
-0.264143 -0.123715 0.099578
0.034887 0.399535 -0.362148
-0.014963 -0.085749 -0.073238
0.096591 0.423327 -0.212177
0.331590 0.364353 -0.162337
-0.051227 0.085027 0.028976
-0.017972 0.292824 -0.176334
0.019890 0.396049 -0.301337
0.186720 0.390158 -0.256451
-0.029882 0.149520 -0.082680
0.403362 0.307856 -0.172155
0.204014 0.188514 -0.175393
0.004981 0.282434 -0.170763
0.012402 0.208781 -0.230219
0.120020 0.303419 -0.134364
0.244329 0.218141 -0.103018
-0.217794 -0.251580 0.041371
0.349388 0.275970 -0.133068
-0.228860 -0.156688 0.043554
-0.054932 0.085169 0.029784
0.010506 0.212478 -0.101145
-0.203046 -0.283615 0.124998
-0.015719 0.054860 0.031028
-0.015894 0.196844 -0.198217
-0.076135 0.034133 -0.137314
0.101453 0.430893 -0.223901
0.129549 0.269751 -0.426823
-0.215034 -0.077238 0.069821
-0.003406 0.205147 -0.217100
-0.088739 -0.185867 0.116549
-0.006108 0.446635 -0.210899
-0.029635 0.136875 -0.177437
-0.263339 -0.291974 0.257329
-0.175901 -0.206205 0.178426
0.273455 0.167449 -0.446687
0.016266 0.146279 -0.090637
0.026517 -0.032323 -0.001321
0.190199 0.133431 -0.527853
-0.141844 -0.228637 0.086476
0.035854 0.486388 -0.264903
-0.128410 0.117592 -0.097363
-0.138102 -0.205942 0.062755
-0.273943 -0.262452 0.129824
-0.246264 -0.111587 0.137783
0.195972 0.250178 -0.080795
0.129200 0.077608 -0.357711
-0.223557 -0.335789 0.230551
0.302458 0.214297 -0.281054
0.173386 0.410368 -0.166367
0.011856 0.262418 -0.265515
0.016784 0.000685 -0.057981
0.087272 0.070410 -0.003962
0.231803 0.303877 -0.078597
0.026000 0.252090 -0.288859
-0.140638 -0.067417 0.098144
0.108995 0.110849 -0.432467
-0.146742 -0.006959 -0.077340
-0.149713 0.021071 -0.067540
-0.258259 -0.224549 0.064641
-0.179034 -0.091885 0.029125
-0.132528 -0.055836 0.083832
0.065758 0.053928 -0.058840
0.223046 0.202784 -0.115819
-0.083647 0.141332 -0.096757
-0.170079 -0.251795 0.081668
0.083901 0.067914 0.016060
-0.283379 -0.352304 0.201568
0.065097 0.384522 -0.370714
-0.025833 0.051644 0.048522
0.205241 0.155906 -0.238658
0.191857 0.375990 -0.270227
-0.266021 -0.223369 0.206334
-0.049762 0.069057 -0.116466
-0.238248 -0.320829 0.134813
-0.050018 0.396341 -0.190094
0.258660 0.394744 -0.174736
0.001623 0.119366 -0.226615
0.115067 0.068314 -0.390222
-0.252876 -0.354433 0.219147
0.263407 0.314134 -0.287159
-0.316582 -0.334579 0.178579
-0.318223 -0.234587 0.227620
0.169051 0.207815 -0.495019
0.092880 0.248817 -0.115400
-0.309947 -0.190955 0.162047
-0.131183 -0.114933 -0.013625
0.317692 0.288374 -0.272671
-0.082028 0.142198 -0.108287
0.014974 0.385072 -0.203351
0.111294 0.436215 -0.250335
-0.014189 0.176529 -0.114218
-0.021157 0.131933 -0.100331
0.085334 0.420931 -0.305899
0.045679 -0.003577 -0.029393
-0.181793 -0.334789 0.264107
-0.352229 -0.285287 0.238676
0.040198 -0.005238 -0.123031
-0.191663 -0.293080 0.094672
-0.016451 0.332841 -0.162583
-0.358059 -0.270305 0.224130
0.272836 0.233113 -0.383484
-0.094516 -0.077165 -0.112752
0.046147 0.115145 -0.040880
0.114329 0.401367 -0.305656
-0.222750 -0.080535 0.118505
-0.238836 -0.304381 0.095126
0.301764 0.301865 -0.237695
0.035196 0.177127 -0.257404
0.399614 0.286555 -0.147280
-0.241273 -0.287785 0.057142
0.000126 0.285813 -0.170429
0.039224 0.210398 -0.070116
-0.030268 0.107514 -0.146494
0.291929 0.211818 -0.283758
0.410659 0.318339 -0.152201
-0.033555 0.385895 -0.215245
0.105058 0.302947 -0.127683
0.015898 0.405582 -0.308485
-0.026697 0.443966 -0.200571
-0.148074 -0.191140 0.196902
0.218604 0.215956 -0.090447
0.104843 0.223948 -0.104489
-0.200069 -0.243479 0.023305
0.105092 0.178866 -0.067157
0.068830 0.063689 0.033984
-0.223956 -0.201029 0.061825
-0.082842 0.032294 -0.123750
-0.015381 0.344496 -0.175624
-0.159748 -0.127167 0.007507
0.229625 0.270800 -0.372831
-0.078337 0.010589 -0.126020
-0.015204 0.009299 -0.125750
-0.028454 0.148044 -0.069639
-0.166853 -0.172135 0.162750
-0.141747 -0.004725 -0.084579
0.024951 0.016461 -0.071669
-0.046437 0.126204 -0.066332
0.048704 0.067464 -0.015549
-0.065036 -0.098315 -0.113681
0.217986 0.307984 -0.335055
-0.049953 0.387841 -0.185102
0.216504 0.174782 -0.162750
-0.035346 -0.009436 -0.150390
0.353699 0.344137 -0.168994
-0.097933 -0.193366 0.115490
-0.277992 -0.189651 0.132718
0.113139 0.092775 -0.380834
-0.247696 -0.171820 0.091611
0.053729 0.272196 -0.355282
-0.099467 0.056093 0.044397
0.044155 0.205872 -0.278005
0.139078 0.110541 -0.198944
-0.321163 -0.314778 0.179957
0.075758 0.130302 -0.324728
0.225892 0.238260 -0.418130
0.074082 0.151099 -0.279639
-0.139744 -0.051316 -0.025714
0.271013 0.191322 -0.136372
0.320675 0.253702 -0.101988
0.084958 0.266507 -0.436302
-0.122468 -0.209337 0.120928
0.002806 0.073623 0.003545
0.020218 0.214197 -0.074886
-0.022327 0.139249 -0.213182
-0.151743 -0.250556 0.045184
0.131156 0.144326 -0.097465
-0.144957 -0.140154 0.168005
0.135276 0.186998 -0.421120
-0.277714 -0.334145 0.228900
-0.232465 -0.303336 0.128989
-0.360375 -0.264050 0.248075
-0.269448 -0.237634 0.212678
0.012717 0.478301 -0.295698
0.066808 0.116103 -0.340741
0.020252 0.374843 -0.401800
0.019456 0.256085 -0.236197
-0.244478 -0.177327 0.174040
-0.153289 -0.070728 -0.010603
0.271123 0.320898 -0.271638
0.182356 0.196102 -0.510864
0.037702 0.258939 -0.299309
0.144572 0.134512 -0.282798
-0.104092 -0.140618 0.156845
-0.100296 0.005173 0.064956
0.212647 0.127216 -0.466417
0.151761 0.116784 -0.170748
0.124552 0.075260 -0.356100
-0.220630 -0.067121 0.041470
-0.012836 -0.078909 -0.034597
0.094108 0.370663 -0.173193
-0.047247 0.505202 -0.291920
-0.066521 -0.082395 -0.078243
0.019641 0.264876 -0.223705
-0.002179 0.368153 -0.164788
-0.165321 -0.268410 0.217410
0.191891 0.065869 -0.372537
-0.180947 -0.216943 0.237458
-0.140214 -0.176860 -0.019628
0.316383 0.241324 -0.231135
-0.358332 -0.237642 0.224316
-0.004115 0.390582 -0.283451
0.130362 0.477210 -0.171796
-0.131373 -0.215669 -0.009838
-0.256435 -0.111942 0.093949
0.089827 0.401315 -0.327276
0.145612 0.193935 -0.122451
0.402339 0.341965 -0.129013
-0.027802 0.185602 -0.127354
-0.351673 -0.250562 0.208648
0.428265 0.340270 -0.108395
0.251401 0.348171 -0.149922
0.313872 0.388351 -0.118489
-0.029856 0.403144 -0.224472
0.186268 0.159181 -0.546599
0.234998 0.337493 -0.131386
-0.298104 -0.302364 0.256199
-0.102499 -0.187062 0.086664
-0.083259 0.048919 0.043404
-0.004224 0.228497 -0.167005
0.278698 0.145285 -0.491735
-0.253365 -0.295024 0.271446
-0.255131 -0.174292 0.162625
-0.325021 -0.271596 0.170277
0.121325 0.431500 -0.260593
0.053854 0.273859 -0.362985
-0.154025 -0.124687 0.012895
0.155865 0.145763 -0.208686
0.409273 0.301701 -0.159597
0.079476 0.377840 -0.190549
0.061825 0.299946 -0.428001
-0.089325 -0.140463 -0.021590
0.070041 0.067022 -0.134637
0.029142 0.350747 -0.398301
0.049816 0.138173 -0.248572
-0.149066 0.006299 -0.062907
0.371586 0.298879 -0.118135
0.014521 0.256713 -0.143429
-0.287827 -0.147995 0.131897
0.259840 0.253602 -0.368459
-0.019552 0.086762 -0.045754
-0.142555 0.030168 0.003230
-0.167547 0.074353 0.002181
0.077492 0.114060 -0.096894
-0.307611 -0.268013 0.223921
-0.041039 0.396088 -0.203965
0.095224 0.114477 -0.248447
0.060396 0.118539 -0.064704
0.302099 0.256346 -0.227610
0.314585 0.232532 -0.130682
-0.214904 -0.326126 0.272204
0.125323 0.202472 -0.402354
0.019542 -0.009573 -0.093123
0.094448 0.119662 -0.284366
0.087623 0.148735 -0.396096
0.275973 0.307084 -0.058539
0.033128 -0.023175 -0.007233
-0.100986 -0.187266 0.154324
0.230194 0.181900 -0.487122
-0.023016 -0.087905 -0.052589
0.193569 0.329694 -0.328501
0.230978 0.182786 -0.369955
0.005462 0.212578 -0.100296
-0.029424 0.397493 -0.199539
0.012163 -0.043284 -0.135538
0.074803 0.072656 0.026190
0.026193 0.295972 -0.284387
0.276356 0.241202 -0.369942
-0.060383 -0.109674 0.020290
-0.023812 0.512240 -0.284007
-0.004300 0.098470 -0.045284
0.103174 0.088331 -0.126672
-0.192325 -0.284117 0.271709
0.315863 0.201093 -0.386981
-0.222114 -0.304620 0.259940
-0.080983 0.341168 -0.200358
-0.210127 -0.113457 0.030957
0.346953 0.375008 -0.135066
0.061531 0.138778 -0.352214
-0.061759 0.151144 -0.137741
0.054053 0.140622 -0.255889
-0.105554 -0.053018 0.081240
-0.096365 -0.157165 -0.020538
0.251344 0.402621 -0.183512
0.294960 0.181775 -0.327518
-0.066297 0.098695 -0.028788
0.095741 0.345288 -0.394418
0.143582 0.108311 -0.193764
0.080002 0.275221 -0.443164
-0.186463 -0.174093 0.013685
-0.178541 -0.330190 0.262647
0.184991 0.185537 -0.522188
0.033492 0.129121 -0.039787
0.040853 0.423175 -0.327838
-0.078508 0.347781 -0.251088
0.127112 0.215482 -0.397367
0.029601 0.507241 -0.239794
0.169331 0.244388 -0.132046
-0.158668 0.035771 -0.011801
0.003266 0.391859 -0.283001
-0.018748 0.211347 -0.106874
0.192684 0.200740 -0.120643
-0.151916 -0.019022 0.048160
0.124009 0.457519 -0.224635
0.011061 0.339399 -0.290148
-0.054265 0.020677 0.053335
-0.163426 -0.246554 0.027649
0.306303 0.214221 -0.378438
-0.171951 -0.281839 0.107953
0.197018 0.203052 -0.168797
0.012448 0.300375 -0.172194
-0.259504 -0.107288 0.086683
0.129379 0.135675 -0.232406
0.232300 0.275112 -0.364910
-0.096649 -0.181906 0.107029
-0.348757 -0.279178 0.213224
-0.021463 -0.024277 0.048429
-0.133766 -0.024395 -0.021849
-0.167682 0.078907 -0.032724
0.315746 0.231352 -0.243539
-0.006101 0.475856 -0.315407
-0.288013 -0.203567 0.136426
0.243058 0.299709 -0.323686
0.336253 0.187934 -0.369446
-0.209555 -0.056348 0.057134
-0.247013 -0.176958 0.182399
0.103094 0.264883 -0.114743
0.246300 0.243436 -0.085499
-0.065482 -0.100514 0.061461
0.067480 0.237028 -0.344368
-0.124468 -0.180203 0.191204
-0.213638 -0.338582 0.206613
-0.041633 0.349309 -0.268368
-0.260206 -0.276137 0.247740
0.072249 0.295588 -0.446295
-0.218273 -0.349104 0.261742
0.285623 0.244570 -0.043367
-0.307638 -0.323578 0.212269
-0.210200 -0.146834 0.011521
0.066543 0.257491 -0.388694
0.264759 0.149910 -0.498024
0.244591 0.193973 -0.458870
0.040579 0.064111 -0.020589
-0.144439 -0.219770 0.054897
0.006807 0.226620 -0.204653
-0.021333 -0.081561 0.013156
-0.062273 0.096140 -0.068923
-0.252785 -0.295519 0.093741
-0.029669 0.381116 -0.223865
0.014870 0.345193 -0.294289
-0.057312 0.105983 -0.038002
0.280211 0.340671 -0.127565
-0.007013 0.315975 -0.169434
-0.004222 0.452460 -0.343965
-0.190902 -0.268746 0.173340
-0.044794 -0.092763 -0.070077
0.033428 0.296166 -0.297711
-0.257145 -0.230241 0.212985
0.188819 0.173149 -0.181240
-0.049720 0.331340 -0.256492
-0.306957 -0.190472 0.172692
0.150319 0.117689 -0.197100
0.323069 0.356707 -0.179706
-0.194244 -0.120343 0.009274
-0.173035 -0.293001 0.256437
0.021397 -0.010422 -0.184849
0.205565 0.298226 -0.103497
0.031362 0.389499 -0.393962
0.093017 0.066171 -0.163963
-0.178510 0.040655 -0.027293
-0.009656 -0.039671 -0.179699
-0.260331 -0.271195 0.238089
0.015657 0.352795 -0.155521
0.135652 0.437619 -0.160295
-0.007582 0.076387 0.009356
0.304824 0.226250 -0.142748
0.219093 0.136672 -0.377836
-0.090262 0.050015 0.052963
-0.084711 0.156173 -0.098963
0.130419 0.120187 -0.290276
-0.137939 -0.227137 0.005192
-0.150950 -0.033223 0.000333
0.157190 0.239730 -0.423221
0.169004 0.179835 -0.144445
-0.145857 0.040690 0.005349
0.051670 0.052408 -0.088788
-0.099178 -0.157326 0.142837
0.077837 0.064768 -0.179676
-0.126669 -0.199933 0.113426
0.018142 0.151472 -0.244877
-0.303712 -0.300408 0.174421
-0.143581 -0.196829 -0.027132
0.172059 0.070803 -0.376073
0.058541 0.302466 -0.159892
0.050899 0.014938 -0.155700
-0.327226 -0.280947 0.249058
0.032395 0.028799 -0.082731
0.031923 0.359950 -0.424230
0.157280 0.175221 -0.486474
-0.187487 -0.140814 0.144768
0.163439 0.290043 -0.406204
0.160484 0.118250 -0.432735
0.099145 0.442922 -0.265355
0.001469 0.147250 -0.079600
0.051534 0.300785 -0.364056
0.046009 -0.000273 0.062452
0.322707 0.210328 -0.369035
-0.049143 -0.064481 0.021437
0.066727 0.345497 -0.156608
0.012361 0.473165 -0.302643
0.048720 0.074560 0.010399
-0.101966 0.068627 -0.087359
-0.141246 0.108110 -0.008015
0.005910 -0.054595 0.012970
-0.091823 -0.136769 -0.014420
0.365646 0.242085 -0.253102
-0.013005 0.159060 -0.075153
0.054695 0.318872 -0.401590
-0.166288 -0.027795 0.039003
0.051877 0.325300 -0.431814
0.253229 0.264872 -0.079645
0.304803 0.200621 -0.388210
-0.017590 0.144487 -0.204025
-0.289437 -0.255133 0.222276
-0.165260 -0.230095 0.159821
0.181157 0.140581 -0.533821
0.136330 0.087690 -0.122839
-0.094205 -0.070393 0.094463
0.129712 0.169607 -0.396501
0.199919 0.327545 -0.143053
-0.040616 0.120746 -0.154163
0.117049 0.090228 -0.361168
0.249204 0.339378 -0.267058
0.007273 0.414448 -0.202587
-0.115800 0.020355 -0.099033
-0.194104 -0.113176 0.016375
-0.065595 0.121945 -0.146224
0.098334 0.355728 -0.378657
0.107060 0.109270 -0.289344
0.039186 0.418961 -0.230971
-0.172686 -0.088935 0.002020
-0.019520 0.343779 -0.171579
0.332140 0.314596 -0.132644
0.204542 0.245665 -0.427350
0.373905 0.300587 -0.185791
-0.203228 -0.178190 0.171535
-0.206237 -0.202926 0.016390
0.068574 0.129150 -0.069387
-0.302208 -0.230093 0.178561
0.014545 -0.027734 -0.156265
0.075819 0.327609 -0.434771
0.310379 0.222332 -0.069344
-0.253975 -0.346003 0.172275
0.093274 0.123592 -0.327726
0.130280 0.482856 -0.182222
0.036086 0.374199 -0.179450
-0.117915 -0.184982 -0.019453
0.211761 0.152670 -0.229029
-0.018279 -0.086990 -0.046903
0.207998 0.150934 -0.322249
0.157515 0.120749 -0.401972
-0.172452 -0.241631 0.024007
-0.083509 -0.081991 -0.125924
-0.050208 0.137778 -0.131513
-0.015332 -0.066032 -0.157097
-0.091177 -0.155512 0.060978
-0.067965 -0.152580 0.124694
0.108399 0.189832 -0.085462
-0.169887 -0.264940 0.065634
0.396015 0.378860 -0.079292
-0.076868 -0.097618 0.094086
0.064114 0.254055 -0.124511
-0.225492 -0.309631 0.115407
0.098773 0.243389 -0.401336
-0.083674 0.008205 0.061422
-0.029995 -0.051358 0.021830
-0.012138 0.101608 -0.215307
0.123495 0.283162 -0.128360
-0.286496 -0.241393 0.097282
0.351522 0.249438 -0.125190
-0.271369 -0.273930 0.097115
-0.062327 0.386124 -0.203228
0.113996 0.432205 -0.263226
0.109753 0.289407 -0.454249
0.331222 0.360330 -0.087884
0.097031 0.302067 -0.449093
0.017422 0.250000 -0.236054
-0.084918 -0.083600 -0.038180
-0.004261 0.208151 -0.081391
0.282354 0.214660 -0.121766
0.020333 0.373938 -0.394945
-0.159135 -0.083687 0.107186
0.055095 0.044206 -0.109224
0.302373 0.295687 -0.276703
0.109592 0.453706 -0.179314
0.001065 0.079906 -0.189748
0.031972 -0.021454 -0.079595
0.194375 0.394588 -0.151686
-0.207043 -0.212510 0.018144
0.143787 0.057562 -0.384685
0.051876 0.414235 -0.323842
-0.035211 0.138828 -0.122904
0.313383 0.282237 -0.242317
-0.057676 -0.094626 0.058432
-0.270923 -0.299616 0.144567
0.171159 0.263665 -0.431438
-0.094224 -0.002406 -0.117291
0.284861 0.206327 -0.278318
0.220672 0.410580 -0.200215
0.183365 0.459605 -0.155553
-0.233411 -0.273015 0.057980
0.027012 0.148881 -0.088130
-0.041546 0.397998 -0.250447
-0.309081 -0.232626 0.161523
0.262101 0.197471 -0.275145
0.009240 0.484194 -0.226435
0.027015 0.237884 -0.267079
-0.290193 -0.295995 0.257046
-0.182034 -0.320887 0.249028
-0.092076 -0.139249 -0.030857
-0.057712 -0.099578 -0.109277
0.098488 0.431203 -0.257810
0.061753 0.243987 -0.118099
0.299928 0.251233 -0.336255
-0.150806 -0.224933 0.133365
0.239386 0.184025 -0.276253
0.337978 0.230429 -0.329648
0.024245 0.273947 -0.225023
0.300330 0.230311 -0.145998
0.006771 -0.063637 -0.025268
0.155458 0.196280 -0.465994
-0.055482 0.455146 -0.319483
-0.286977 -0.253607 0.217217
0.256897 0.209754 -0.427667
0.242420 0.188921 -0.230933
0.180743 0.103274 -0.303091
0.223539 0.161330 -0.404994
-0.324289 -0.302933 0.230475
-0.278546 -0.167222 0.102798
-0.126213 0.060484 -0.083792
0.005882 -0.009965 -0.145209
0.201985 0.295404 -0.102230
0.340695 0.207571 -0.314643
0.016751 -0.056984 0.018195
-0.075912 0.359314 -0.240102
-0.112308 0.001574 -0.116839
-0.292611 -0.332648 0.216477
-0.105994 0.003620 -0.117960
0.009748 0.446717 -0.339092
0.078518 0.303565 -0.458123
0.327411 0.351773 -0.091662
-0.017551 0.499923 -0.294403
0.219141 0.170244 -0.259194
0.213773 0.201678 -0.108650
0.239158 0.186090 -0.227194
-0.172115 -0.042026 0.038216
-0.253741 -0.109945 0.120561
-0.109376 -0.193327 0.165802
0.063981 0.066717 0.033503
-0.314506 -0.244941 0.191272
-0.140391 -0.117902 -0.030791
-0.108320 -0.170158 0.164925
0.054882 0.121445 -0.248899
-0.078707 0.147941 -0.147724
0.208110 0.445069 -0.134640
0.136390 0.180218 -0.426873
-0.165717 -0.095396 0.153532
-0.011092 0.196763 -0.200631
0.160738 0.264651 -0.093980
0.250005 0.289844 -0.330313
0.177586 0.088506 -0.349024
0.229050 0.183066 -0.364398
0.228438 0.240183 -0.413409
0.122935 0.164183 -0.079726
0.040523 0.459407 -0.295634
-0.148844 -0.212473 0.214198
-0.063665 0.009221 -0.125836
-0.043271 0.093601 -0.009183
0.207481 0.108933 -0.354656
-0.194743 -0.270374 0.172449
-0.008903 0.208069 -0.138113
0.385876 0.316269 -0.176673
-0.339009 -0.276309 0.247822
-0.051290 0.021301 0.061099
-0.181680 -0.098698 0.043647
-0.095944 0.025522 0.048619
-0.141016 -0.075577 -0.021334
0.144562 0.146075 -0.108606
-0.195850 -0.136005 0.144280
0.106322 0.297032 -0.447421
-0.008933 0.206832 -0.205074
0.176362 0.264346 -0.428017
0.333310 0.381527 -0.138650
-0.090929 -0.085388 -0.100955
-0.029025 -0.045654 0.032665
-0.007534 0.214213 -0.093266
0.178242 0.154085 -0.219732
-0.034774 0.291957 -0.254546
0.169787 0.450406 -0.193551
-0.258495 -0.164466 0.085040
0.088475 0.076938 0.003187
0.141414 0.221325 -0.124746
-0.092440 0.107481 -0.033011
-0.164599 -0.031583 0.026579
-0.125710 -0.038755 0.062226
-0.137434 0.022600 -0.013833
0.378091 0.340014 -0.152861
0.098303 0.247243 -0.102518
0.292136 0.302790 -0.093992
0.122534 0.234591 -0.106948
0.079039 0.144931 -0.277002
0.159816 0.140805 -0.140319
-0.140588 -0.088856 -0.010986
0.325552 0.237939 -0.241855
-0.152205 -0.131400 -0.017191
0.105900 0.414605 -0.295976
0.113564 0.217300 -0.094319
-0.000034 0.107853 -0.194975
-0.145702 -0.152012 0.178119
0.328375 0.174598 -0.352826
-0.336175 -0.278346 0.205904
-0.038044 0.145194 -0.195670
-0.063931 0.485602 -0.314591
-0.137775 -0.176465 -0.000183
0.315350 0.294034 -0.089448
-0.193645 -0.218438 0.009704
0.102342 0.077447 -0.205876
0.207082 0.317342 -0.119830
-0.036625 0.004962 0.065634
0.181549 0.446107 -0.145022
-0.022892 0.405991 -0.201052
-0.075594 0.356673 -0.205168
0.274203 0.342104 -0.241546
0.156443 0.174012 -0.476449
0.311485 0.219450 -0.097340
0.171335 0.287027 -0.103536
-0.010812 0.409709 -0.292677
0.222747 0.173032 -0.272705
0.139689 0.279173 -0.435347
-0.021659 0.518050 -0.274609
0.041944 0.380827 -0.190162
0.247651 0.422569 -0.161002
-0.088056 -0.145957 0.067307
-0.159321 -0.250796 0.068451
0.056731 0.119103 -0.251514
0.125842 0.135101 -0.071731
0.296842 0.260642 -0.326820
0.097725 0.119859 -0.092800
0.016047 0.256180 -0.253463
0.303254 0.298150 -0.224229
-0.039848 0.087277 -0.025592
-0.241516 -0.091733 0.108022
0.106512 0.358353 -0.169602
0.227281 0.265674 -0.381511
0.173234 0.400676 -0.164507
0.044110 -0.008541 -0.036211
0.351531 0.356635 -0.075680
0.079982 0.062210 -0.157775
-0.043301 -0.064351 -0.156076
0.398662 0.376512 -0.087638
0.127001 0.274981 -0.130416
-0.199408 -0.108684 0.121392
-0.199872 -0.131436 0.015523
0.052219 0.359001 -0.414995
0.132999 0.470756 -0.166497
0.171603 0.089394 -0.350968
-0.088930 0.158966 -0.106762
-0.113700 -0.117643 -0.028787
0.007463 -0.022861 -0.146790
-0.022286 0.280893 -0.220719
-0.257808 -0.363481 0.189665
0.316486 0.234529 -0.133811
0.005426 0.330742 -0.144305
0.249510 0.198602 -0.253367
0.187526 0.160130 -0.238576
-0.029043 0.473678 -0.338400
0.150853 0.090573 -0.302045
0.248237 0.318159 -0.295306
0.076025 0.220697 -0.355422
-0.253191 -0.238934 0.231175
0.259188 0.363316 -0.165117
-0.148861 -0.255224 0.085047
-0.278149 -0.158665 0.091729
-0.181569 0.049946 -0.029599
-0.003749 0.409386 -0.292526
-0.038310 0.286125 -0.236936
-0.125010 -0.019807 0.033032
0.201217 0.161775 -0.538596
0.219039 0.232130 -0.432076
0.240659 0.128993 -0.526438
0.189656 0.189325 -0.167679
-0.122696 -0.166135 0.017081
0.149971 0.143004 -0.273268
-0.218065 -0.077727 0.075479
0.002554 0.177434 -0.232409
0.146032 0.252634 -0.397931
0.195814 0.319274 -0.130914
-0.080099 0.071018 0.023916
-0.035076 0.075299 -0.003370
-0.242935 -0.265314 0.066439
0.028034 0.136993 -0.056760
-0.002750 -0.054540 -0.164468
-0.107611 -0.140081 0.007293
-0.087552 -0.080998 0.114727
0.204240 0.115723 -0.422435
0.209696 0.353670 -0.138209
-0.141306 -0.005067 0.017269
-0.016979 0.116700 -0.051545
0.036478 0.047607 -0.024805
0.043799 -0.016727 0.060002
0.219240 0.121665 -0.510294
0.041459 0.001850 -0.173021
0.066760 0.078699 -0.004942
0.282600 0.340377 -0.236391
-0.152374 0.040053 -0.002288
-0.149667 -0.230102 0.063077
-0.129950 -0.103328 0.105147
0.361009 0.237940 -0.260030
-0.124999 -0.204182 0.074898
-0.287689 -0.159892 0.152479
0.342624 0.273825 -0.116579
-0.114347 0.008183 0.041516
-0.249881 -0.312157 0.259855
0.355870 0.260056 -0.275653
0.060963 0.446385 -0.245715
-0.139837 -0.124875 0.124328
0.101547 0.054776 -0.169913
0.270405 0.306876 -0.059670
-0.093134 -0.158574 0.097553
0.287271 0.332308 -0.079471
-0.161970 -0.259013 0.069691
0.263214 0.201803 -0.238304
-0.094145 0.094529 -0.088240
0.024756 0.060213 -0.033803
0.122884 0.357679 -0.354543
-0.226446 -0.297992 0.137472
0.063902 0.388028 -0.367238
-0.043751 0.044149 -0.137791
0.134567 0.057792 -0.388076
0.105012 0.176033 -0.389798
-0.023753 0.462401 -0.348309
0.314229 0.343284 -0.085165
-0.020054 0.464166 -0.262871
-0.031369 0.201445 -0.143560
-0.063158 0.034498 0.076542
0.217347 0.389808 -0.145624
-0.306404 -0.279020 0.259620
0.309664 0.368671 -0.176049
-0.064720 -0.008460 0.047370
-0.025367 0.074039 -0.153963
0.140000 0.327841 -0.378014
-0.027300 0.486043 -0.240527
0.157628 0.259211 -0.123332
-0.253818 -0.217414 0.065746
0.318679 0.178656 -0.340639
-0.029514 0.146442 -0.088450
-0.161153 -0.083227 0.125130
0.159511 0.078352 -0.404540
0.067746 0.058899 -0.202522
-0.017366 0.353837 -0.182645
0.089094 0.381722 -0.353220
0.001920 -0.019310 -0.118544
0.024990 0.329027 -0.151804
-0.163096 -0.132057 0.148140
-0.167329 -0.141444 0.007797
-0.158942 0.072429 0.016867
-0.061783 -0.024562 -0.145373
0.144086 0.476917 -0.181926
-0.119484 -0.065879 0.086974
-0.000893 0.278158 -0.227783
0.009156 0.521510 -0.231057
0.148941 0.263920 -0.403253
-0.069961 0.073287 0.040930
-0.258372 -0.233250 0.215612
0.275106 0.215119 -0.215565
-0.151778 0.101612 -0.068927
-0.192879 -0.112996 0.140320
0.076759 0.065978 -0.092835
-0.179728 -0.172274 -0.008289
-0.199768 -0.291409 0.125595
0.040652 0.338164 -0.155271
0.098180 0.323293 -0.420674
0.212450 0.246226 -0.419671
-0.257988 -0.180711 0.110226
0.249345 0.239512 -0.082623
0.001410 -0.047842 -0.171725
0.137795 0.420104 -0.171831
-0.093741 -0.065876 -0.119631
0.258400 0.346117 -0.250267
0.328435 0.278652 -0.275775
0.020735 0.373274 -0.291422
0.005164 0.505689 -0.222913
-0.032850 0.276594 -0.228361
-0.039265 0.119838 -0.042808
0.219523 0.169422 -0.320999
0.211662 0.364406 -0.267763
-0.013646 -0.080459 -0.088401
0.022493 0.283615 -0.275672
-0.044824 0.124598 -0.050979
0.244375 0.436249 -0.146220
-0.141313 -0.003835 -0.015240
-0.147295 -0.057093 -0.029989
0.138663 0.128108 -0.425510
0.050671 -0.005400 0.055765
0.104218 0.113641 -0.347152
0.057811 0.070915 -0.000734
-0.141419 -0.052608 -0.029279
0.056064 0.126427 -0.047130
0.001214 0.498488 -0.279748
-0.072176 0.363714 -0.232863
-0.095509 -0.094812 0.121291
-0.157814 -0.149375 -0.028578
-0.234116 -0.353534 0.238917
0.250578 0.299116 -0.070910
-0.154545 0.099824 -0.066665
0.088137 0.070264 -0.199310
0.154991 0.370979 -0.309126
-0.266050 -0.311798 0.123717
-0.279089 -0.138925 0.141413
0.053676 0.437813 -0.238178
-0.179665 -0.278816 0.090077
-0.201220 -0.292863 0.156809
0.198505 0.387968 -0.248913
-0.113683 -0.187708 0.184970
0.216951 0.148373 -0.358124
-0.310213 -0.328624 0.204796
-0.069062 -0.071066 0.098671
0.049113 0.038428 0.061955
-0.085234 -0.094510 -0.011095
-0.168771 0.077914 -0.059700
-0.019380 0.102442 -0.143053
-0.018080 0.390059 -0.209100
0.309694 0.375883 -0.107794
-0.028295 0.169774 -0.148850
0.134146 0.118455 -0.200211
0.149452 0.233414 -0.112570
-0.074065 0.353614 -0.179514
-0.019664 0.094987 0.004930
-0.223989 -0.091263 0.126995
-0.121848 0.132933 -0.101701
0.166378 0.136530 -0.436838
0.217400 0.129886 -0.517932
0.259037 0.183309 -0.459931
0.251214 0.205692 -0.369523
-0.059282 0.335547 -0.253072
-0.012159 0.168385 -0.087943
0.218272 0.241071 -0.421203
-0.006421 0.113623 -0.163083
0.086913 0.154018 -0.306800
0.019683 0.374725 -0.405755
-0.010322 0.185533 -0.107433
0.293683 0.222621 -0.378695
-0.237624 -0.179176 0.158945
-0.171971 -0.084152 0.130753
-0.198382 -0.307971 0.076586
-0.224644 -0.301594 0.076915
-0.063186 -0.122984 0.114055
0.144681 0.344192 -0.352785
0.247733 0.336891 -0.271562
0.042383 0.330683 -0.404848
0.140918 0.104210 -0.325386
0.277441 0.295006 -0.299514
-0.121922 -0.207173 0.191588
-0.069017 0.344007 -0.230727
-0.039601 0.141414 -0.155336
-0.345641 -0.250588 0.247126
0.038715 0.012900 -0.170977
-0.273429 -0.215235 0.207931
0.144080 0.129085 -0.285140
-0.261477 -0.227592 0.097512
0.013597 0.033729 -0.126025
-0.029594 0.369621 -0.274220
0.054640 0.042455 -0.009218
0.176989 0.128094 -0.263585
-0.047181 0.048085 -0.121495
0.048694 0.075402 -0.023666
-0.049513 0.140430 -0.139994
0.212170 0.385706 -0.239812
0.220707 0.167922 -0.218131
0.215056 0.426486 -0.128869
-0.070226 -0.107416 0.104837
-0.035208 0.403565 -0.184973
0.185437 0.305520 -0.366868
0.064532 0.066297 -0.062903
0.094178 0.336582 -0.407035
0.300931 0.353143 -0.203782
-0.242917 -0.144924 0.067217
-0.048664 0.523907 -0.281295
-0.041764 0.187523 -0.148171
0.037540 0.386172 -0.392823
0.038521 0.400813 -0.373055
0.183346 0.374574 -0.277280
0.115841 0.440009 -0.170314
-0.116869 -0.049003 -0.059529
0.041749 0.389053 -0.311472
0.350557 0.214144 -0.294641
0.094084 0.285374 -0.141166
0.130476 0.165042 -0.087920
0.326753 0.304105 -0.125781
0.346072 0.242299 -0.307201
-0.274410 -0.149279 0.152506
-0.155458 -0.012304 0.039878
0.010351 -0.036366 -0.179596
-0.123295 -0.198727 0.192421
-0.304325 -0.186414 0.142633
-0.201520 -0.318828 0.192007
0.265817 0.333818 -0.109169
0.243405 0.174707 -0.291899
0.236108 0.185785 -0.381998
0.035419 0.023662 0.073061
-0.007848 -0.073104 -0.091830
0.279773 0.234523 -0.208760
-0.277836 -0.224887 0.142854
-0.028016 0.176018 -0.179757
-0.061081 -0.109155 0.011096
0.069436 0.240941 -0.112753
-0.102787 -0.082108 0.085677
-0.199862 -0.337102 0.180147
0.429526 0.342745 -0.102887
-0.003948 0.321047 -0.275006
-0.245191 -0.268300 0.068666
0.069829 0.278834 -0.129894
0.118385 0.307416 -0.423402
0.116780 0.445000 -0.170201
0.000095 0.113210 -0.174568
-0.137507 -0.252166 0.204422
-0.260640 -0.274629 0.254596
-0.176746 -0.288978 0.215277
0.168726 0.091173 -0.315532
0.316004 0.389615 -0.115596
-0.040373 0.101610 -0.030782
0.230077 0.344950 -0.276687
0.008000 0.408635 -0.204522
-0.064914 0.053606 -0.105745
0.119339 0.482066 -0.196019
-0.012400 0.388794 -0.287059
0.189624 0.387193 -0.257725
0.153789 0.138616 -0.140098
0.232497 0.392264 -0.213465
-0.174032 0.075487 -0.018491
-0.255530 -0.334909 0.102613
0.143444 0.480943 -0.172313
0.196105 0.290645 -0.376692
0.166516 0.136530 -0.172373
-0.266861 -0.222161 0.078279
-0.300619 -0.369737 0.126646
-0.105029 -0.170615 0.155573
-0.177528 -0.263771 0.140999
-0.069364 -0.122350 0.018377
0.041336 0.050367 -0.088159
0.020649 -0.049661 0.008049
-0.172413 -0.077750 0.137685
0.133106 0.194392 -0.416834
0.132476 0.351194 -0.354478
-0.289689 -0.364455 0.171200
0.160697 0.467852 -0.179020
0.006259 0.491412 -0.284448
0.071672 0.073734 -0.209576
-0.291036 -0.334039 0.155853
-0.234718 -0.355525 0.197026
0.045102 0.262346 -0.316025
0.068747 0.031226 -0.000902
0.041114 0.324884 -0.395219
0.356326 0.260133 -0.248388
0.043452 0.083169 -0.222424
0.176712 0.182556 -0.533321
-0.148745 -0.032592 0.050353
-0.007412 0.317165 -0.158542
-0.059389 0.038361 -0.129767
0.075472 0.450225 -0.253896
-0.226117 -0.160583 0.147211
0.311156 0.220345 -0.261059
0.416924 0.333221 -0.127474
-0.222353 -0.286038 0.252505
-0.138456 -0.118745 -0.001072
0.143583 0.328890 -0.146177
0.101455 0.113370 -0.327331
0.221446 0.176908 -0.501263
0.175205 0.150311 -0.531588
0.027683 -0.033141 -0.007280
0.336332 0.279906 -0.129080
0.306117 0.388664 -0.129327
-0.161386 0.017503 -0.058042
-0.229317 -0.157415 0.164819
0.224289 0.193356 -0.477525
-0.195163 -0.165725 0.158742
0.031937 0.145717 -0.086853
0.044074 0.058773 -0.152506
-0.254240 -0.296174 0.103267
-0.315373 -0.352814 0.166535
0.039161 -0.019844 -0.030396
0.184717 0.289269 -0.388487
0.333684 0.232329 -0.243431
0.251502 0.105485 -0.471085
0.063687 0.084775 0.001023
-0.088193 0.110853 -0.042593
-0.128429 -0.199134 0.003531
-0.187363 -0.195120 0.173018
0.001578 0.430813 -0.205635
0.158947 0.428175 -0.231791
0.019351 0.216523 -0.101027
-0.131883 -0.214841 0.125017
0.022492 0.071609 -0.179018
0.116825 0.316810 -0.412644
0.023831 0.306456 -0.296483
-0.182077 -0.307466 0.242568
-0.035668 0.155226 -0.153984
-0.313482 -0.384109 0.144106
0.076936 0.177795 -0.289882
0.084643 0.120106 -0.097613
0.129679 0.288456 -0.437949
0.107420 0.102761 -0.315866
0.291887 0.359835 -0.124386
-0.095445 0.023053 0.053638
-0.132045 -0.195115 0.111190
0.026559 0.066842 0.007353
-0.127560 -0.110763 0.103788
0.209999 0.290616 -0.080927
-0.341725 -0.252924 0.200091
0.191162 0.364613 -0.137977
0.003015 -0.021194 -0.113522
0.046819 0.207246 -0.067090
0.329599 0.218479 -0.093442
0.444037 0.309610 -0.120933
0.280781 0.230551 -0.183357
0.033592 0.233075 -0.266847
-0.140212 -0.104498 -0.000758
-0.120613 -0.096745 -0.035852
-0.238626 -0.093088 0.050613
0.159775 0.450413 -0.154557
0.303604 0.384809 -0.134628
-0.034809 0.084390 -0.029112
0.246225 0.375797 -0.169109
0.199549 0.145636 -0.292490
0.281922 0.228912 -0.047642
-0.029149 0.412617 -0.288497
-0.013724 0.396334 -0.212484
-0.136309 -0.195992 0.021594
0.152548 0.194737 -0.128692
0.114471 0.422739 -0.277934
0.059515 0.294198 -0.421079
-0.202888 -0.181863 0.055497
-0.282754 -0.233334 0.097191
-0.190246 -0.324016 0.281705
-0.028268 0.299735 -0.202321
0.243267 0.178265 -0.134702
0.026538 0.154414 -0.091695
0.239436 0.178584 -0.285063
0.361385 0.253565 -0.279184
0.126929 0.076514 -0.154520
-0.021134 -0.085820 0.002547
0.200005 0.141943 -0.316519
-0.296953 -0.183671 0.195760
0.101980 0.285031 -0.466738
-0.308434 -0.368071 0.165172
-0.103814 -0.104276 0.119065
-0.202412 -0.073224 0.037391
0.029762 0.230367 -0.281577
0.014284 0.392820 -0.399771
0.218763 0.399965 -0.139242
-0.188315 -0.333182 0.259843
0.142170 0.362795 -0.330972
-0.169020 -0.101817 0.157428
-0.202768 -0.160559 0.044947
0.123850 0.134362 -0.430072
-0.194021 -0.275710 0.159802
-0.231128 -0.102311 0.051579
0.137299 0.118797 -0.150471
-0.209830 -0.138079 0.132339
0.026454 0.467315 -0.297799
0.141911 0.222640 -0.403712
0.054095 0.123617 -0.243745
0.173167 0.093317 -0.335041
0.342424 0.324816 -0.125985
-0.323559 -0.327939 0.185015
-0.229444 -0.229018 0.229111
0.364474 0.331306 -0.176084
0.020702 0.048088 0.070462
-0.207742 -0.075252 0.042939
0.023423 0.259413 -0.244789
0.283105 0.264359 -0.334104
-0.112056 0.118645 -0.096748
-0.018809 -0.017678 0.054750
-0.027582 0.136471 -0.094888
0.043918 0.266269 -0.313532
-0.147166 -0.227308 -0.001819
-0.128980 -0.020672 0.041413
0.161997 0.106289 -0.402715
-0.091448 -0.122448 0.150235
0.315686 0.341317 -0.102302
0.123856 0.171623 -0.083768
-0.008399 -0.073344 -0.025111
-0.156307 0.095342 -0.023476
0.047200 0.033616 -0.098949
0.338598 0.317660 -0.216465
0.202282 0.105395 -0.377476
-0.207574 -0.305457 0.175730
0.197535 0.280594 -0.388412
-0.102233 -0.153193 0.150591
-0.334722 -0.228205 0.194323
0.212087 0.174124 -0.172949
0.004051 -0.001578 -0.139687
0.002932 -0.031184 -0.184718
-0.117655 -0.152910 0.172294
0.027597 0.048906 -0.046870
0.303594 0.268286 -0.311010
-0.229273 -0.296253 0.076549
0.038565 0.054528 0.057760
0.064897 0.356167 -0.407503
-0.328159 -0.259060 0.188581
-0.072799 0.099129 -0.070878
0.261412 0.381197 -0.202319
-0.172227 -0.281668 0.193904
-0.016149 0.008846 0.084736
-0.326983 -0.310859 0.216934
-0.133534 -0.227062 0.070224
0.036406 0.061858 -0.150226
0.246744 0.278211 -0.348202
-0.243765 -0.259771 0.076321
0.142958 0.137619 -0.228505
0.031514 0.279408 -0.163386
0.022437 -0.062096 -0.040235
-0.005512 0.481625 -0.307440
-0.201189 -0.106089 0.113571
-0.225010 -0.224461 0.208201
-0.317191 -0.198452 0.146448
-0.117925 -0.179301 0.185540
0.023087 0.146490 -0.243431
-0.130404 -0.060042 0.091148
0.167015 0.160518 -0.524759
0.019296 0.067063 -0.155224
-0.072199 -0.079439 0.042720
-0.145678 -0.206528 0.056501
0.215628 0.243282 -0.084538
0.322597 0.306883 -0.100184
0.253452 0.191158 -0.119735
-0.135931 -0.231629 0.197914
-0.043182 0.487406 -0.258873
0.116168 0.364001 -0.352287
-0.127176 0.017171 -0.011837
-0.245869 -0.351158 0.229464
0.134501 0.124081 -0.137437
-0.049951 0.047351 0.052577
-0.037679 0.484188 -0.278022
-0.118227 0.036679 0.022750
0.178705 0.461977 -0.170766
-0.251525 -0.290948 0.273963
0.373079 0.280306 -0.162271
-0.003929 0.129059 -0.069603
0.077843 0.341690 -0.161597
-0.010139 0.112937 -0.221019
-0.225777 -0.309672 0.097527
-0.025128 0.045276 0.056741
0.020369 0.502170 -0.258146
-0.146840 -0.021883 0.005473
-0.148709 -0.099399 -0.004017
0.105743 0.448763 -0.182735
-0.099119 -0.161070 -0.031627
0.199599 0.111032 -0.368986
0.137815 0.262477 -0.125153
0.413566 0.308991 -0.161714
0.254707 0.191448 -0.453231
0.269012 0.192349 -0.140795
0.387199 0.313520 -0.179060
-0.237527 -0.129958 0.041112
0.086742 0.404324 -0.193793
-0.250894 -0.351331 0.181067
0.134069 0.142564 -0.410349
-0.197827 -0.180164 0.175357
0.291329 0.221922 -0.118109
-0.308156 -0.203550 0.140806
0.215681 0.302265 -0.095486
0.263391 0.366292 -0.166412
-0.016032 0.353040 -0.161396
-0.293542 -0.328137 0.129643
0.242206 0.193056 -0.237246
0.177740 0.149439 -0.201606
0.347107 0.210283 -0.296513
0.116872 0.163009 -0.394179
0.175912 0.116086 -0.391877
-0.013570 0.091899 -0.049229
-0.222740 -0.342638 0.197600
-0.237517 -0.324907 0.263421
0.100174 0.226866 -0.374077
0.233667 0.105947 -0.414761
-0.263074 -0.358439 0.174292
-0.188616 -0.297957 0.097961
0.160473 0.173251 -0.511680
-0.191861 -0.281480 0.219785
-0.165895 -0.232328 0.010661
0.372972 0.328782 -0.103659
-0.032590 0.152228 -0.202171
0.267499 0.211098 -0.167437
0.082360 0.268931 -0.418596
0.215923 0.177814 -0.293730
0.310021 0.277439 -0.195535
0.019980 0.219799 -0.104845
-0.210452 -0.319790 0.086458
0.322117 0.248254 -0.079499
0.156824 0.201836 -0.469861
0.146594 0.188813 -0.417361
-0.162511 -0.270280 0.214320
0.030905 0.061086 -0.004561
0.111678 0.080402 -0.178371
0.117632 0.102862 -0.325996
-0.001960 -0.065497 -0.008486
-0.059097 0.341556 -0.266268
-0.124205 -0.153936 -0.027741
0.159152 0.172541 -0.458843
0.001568 0.241495 -0.159976
0.067017 0.063127 -0.062614
-0.018118 0.124031 -0.217801
-0.027620 -0.012163 -0.172505
-0.262302 -0.269337 0.231710
0.035653 -0.018657 -0.079724
0.071576 0.357464 -0.399953
0.174514 0.281057 -0.408064
-0.199814 -0.337371 0.275132
0.062696 0.050388 -0.127397
-0.157731 0.029190 -0.018464
-0.245839 -0.299219 0.075560
-0.029654 -0.099851 -0.001388
-0.105346 -0.072540 -0.034760
0.332915 0.237387 -0.093086
-0.133285 -0.015542 -0.032571
0.073672 0.037129 0.017885
-0.240576 -0.331619 0.130439
0.275066 0.115754 -0.475642
0.083365 0.064155 -0.158667
0.091298 0.192740 -0.085452
0.127261 0.105313 -0.155264
-0.173818 -0.268535 0.060681
0.191563 0.166173 -0.541411
0.027068 0.306334 -0.163871
0.130278 0.456826 -0.220015
0.123336 0.151571 -0.078403
-0.168866 0.079233 -0.010070
-0.049590 -0.100619 0.084868
0.113866 0.071826 -0.391479
0.036154 0.222063 -0.302422
-0.271251 -0.365362 0.193274
0.059213 0.205836 -0.338980
0.169225 0.157670 -0.477542
0.134547 0.148683 -0.417872
0.265221 0.104019 -0.477629
0.391103 0.357231 -0.119184
-0.211677 -0.319219 0.203503
0.239274 0.322184 -0.112607
-0.219927 -0.240157 0.238655
-0.265306 -0.244631 0.105582
0.024391 0.092310 -0.018691
0.006653 0.071248 -0.008217
-0.210022 -0.270865 0.046919
0.203594 0.147506 -0.468373
-0.026354 0.318092 -0.188204
0.161395 0.205529 -0.478885
0.369514 0.349668 -0.147940
0.127367 0.311434 -0.410312
0.175323 0.154601 -0.211604
-0.055481 -0.053845 0.053251
0.218862 0.318752 -0.111030
-0.227631 -0.267147 0.051224
-0.058860 -0.093268 -0.081513
-0.221571 -0.240154 0.077295
0.040565 0.084788 -0.045620
-0.263128 -0.204702 0.097772
0.164558 0.264664 -0.421749
-0.282944 -0.183166 0.130051
-0.234569 -0.363601 0.228577
0.291388 0.291930 -0.231212
-0.080537 -0.024687 -0.124330
-0.215733 -0.302072 0.270740
-0.185313 -0.278761 0.176476
0.005644 -0.058285 0.007955
-0.146504 -0.040744 -0.051040
0.180889 0.188784 -0.521604
-0.162100 -0.180561 0.176713
0.042980 0.460120 -0.292552
0.043182 -0.015937 0.056033
-0.215198 -0.345477 0.260364
-0.153582 -0.084006 0.117158
-0.061025 0.371410 -0.276269
-0.099543 -0.137471 0.014269
-0.174505 -0.279355 0.091260
0.250098 0.201564 -0.241308
0.212843 0.262799 -0.071820
0.016414 -0.067357 0.014275
0.117505 0.450610 -0.239277
0.193660 0.362554 -0.285989
-0.109894 0.010201 -0.121968
0.229621 0.337857 -0.286246
-0.039560 0.449389 -0.334800
0.369573 0.360218 -0.071585
-0.159537 -0.168887 -0.024770
0.073871 0.055820 -0.193369
0.041656 0.211612 -0.275724
0.015779 0.090141 -0.221664
-0.331783 -0.256634 0.194447
0.077906 0.050924 -0.004750
-0.141320 -0.008242 -0.065470
0.103721 0.085881 -0.107627
-0.014826 0.076940 0.011841
-0.072664 -0.072282 -0.049873
0.136233 0.442166 -0.163282
-0.173149 -0.207619 0.209832
0.013062 0.221863 -0.115943
0.098366 0.218637 -0.373672
-0.150651 0.052841 -0.073945
-0.140076 -0.221821 -0.010374
0.122119 0.180112 -0.398377
-0.067833 -0.011980 -0.123393
0.162622 0.163072 -0.463301
0.244609 0.192682 -0.218494
-0.015223 0.193147 -0.105273
0.002113 0.273406 -0.212055
0.057464 0.466112 -0.249893
0.032196 -0.032136 -0.017545
0.177056 0.164769 -0.549777
-0.012603 0.109741 -0.152657
-0.012549 0.084632 -0.015389
0.361610 0.279877 -0.135918
0.286124 0.277297 -0.314743
-0.259707 -0.221714 0.067634
-0.153263 -0.063754 -0.020997
0.191321 0.223809 -0.094978
0.045031 -0.000411 -0.164845
0.225170 0.115066 -0.502597
-0.069860 -0.036987 0.059480
-0.191074 -0.156697 0.154010
-0.239265 -0.077465 0.049892
0.133889 0.098930 -0.349160
0.257131 0.244328 -0.382817
-0.094565 -0.091544 0.111543
0.358611 0.361559 -0.142177
0.315784 0.285542 -0.200217
-0.168379 -0.029217 0.064285
-0.015020 0.440186 -0.282596
-0.005665 0.155431 -0.119652
-0.243709 -0.145139 0.050100
0.024969 0.212178 -0.241769
-0.248900 -0.252097 0.239712
-0.250842 -0.253458 0.071540
0.213774 0.204221 -0.142432
0.014750 0.403647 -0.305577
0.234402 0.178880 -0.200967
-0.115750 -0.135500 -0.025085
0.052242 0.169430 -0.277807
-0.110451 -0.050217 0.079340
0.105296 0.062086 -0.179804
-0.038083 -0.040796 0.049061
0.081318 0.136187 -0.076182
-0.134978 0.015353 -0.002132
0.130297 0.098334 -0.189347
0.339417 0.308259 -0.211561
-0.038025 -0.084847 -0.130281
0.205280 0.395640 -0.233047
-0.258192 -0.289043 0.073870
0.157957 0.171909 -0.129475
-0.176801 -0.196946 -0.008844
-0.087518 0.063365 -0.104281
-0.183566 -0.108437 0.157017
0.298820 0.348679 -0.081464
-0.017783 -0.090614 -0.059023
0.068567 0.414032 -0.228651
0.266863 0.225659 -0.207410
-0.156514 -0.014032 -0.081704
0.263281 0.228956 -0.096512
0.021716 0.476622 -0.289950
0.181839 0.183785 -0.527223
0.369571 0.293757 -0.182331
-0.232332 -0.344869 0.249610
-0.238514 -0.174409 0.163288
0.019795 0.305902 -0.173314
-0.124380 -0.042764 -0.071647
-0.218934 -0.162598 0.028373
0.160511 0.429687 -0.228464
-0.307326 -0.233076 0.153124
-0.007998 0.047351 0.052158
-0.302380 -0.267747 0.137470
0.047375 0.030945 -0.072367
-0.029272 -0.031607 0.047444
-0.154837 -0.156030 0.175016
0.188404 0.103722 -0.387191
0.352136 0.268411 -0.252185
0.248383 0.297261 -0.072986
0.037207 0.063036 0.044983
0.069022 0.101232 -0.013613
-0.144022 -0.200878 -0.027243
-0.198186 -0.114189 0.054188
0.327567 0.280590 -0.093787
0.227735 0.274451 -0.069006
0.199908 0.295069 -0.095539
-0.192572 -0.308772 0.104067
0.232188 0.201714 -0.459784
0.026218 0.061537 -0.048936
-0.040598 0.179309 -0.164123
0.030137 0.077906 -0.032684
-0.074160 -0.086232 -0.087319
0.028159 0.003253 -0.117890
-0.278411 -0.364836 0.153705
0.053988 0.049684 -0.005062
0.168966 0.120222 -0.268465
0.319144 0.248916 -0.154905
0.082071 0.139814 -0.268614
-0.149210 -0.227642 0.154669
-0.060015 0.131554 -0.139669
0.168514 0.116658 -0.394475
-0.216388 -0.312951 0.227375
-0.041784 -0.042700 0.048965
0.313754 0.206880 -0.284629
-0.027365 0.290412 -0.195960
0.200653 0.075909 -0.374382
0.323396 0.269336 -0.156380
-0.173343 -0.288522 0.253371
-0.049321 0.327265 -0.254684
-0.189877 -0.305836 0.281011
0.030083 -0.026736 -0.003464
0.099185 0.334115 -0.153638
-0.121936 -0.047892 -0.093613
-0.019474 0.198374 -0.146171
