-0.251343 0.202393 -0.168880
0.296775 -0.121610 0.105384
0.213043 -0.075477 0.027663
-0.154968 0.352069 0.084224
-0.127089 0.052780 0.171153
0.051799 -0.216181 0.039954
0.254646 0.013898 -0.095576
-0.105989 -0.182421 0.121826
0.191170 -0.264901 0.052980
-0.217407 0.322090 -0.085242
-0.007900 -0.276582 -0.037947
0.048207 -0.208870 0.002747
-0.261448 0.247850 -0.002893
-0.097831 -0.206699 0.054707
0.243533 -0.041327 0.093334
-0.243268 0.262611 -0.194432
-0.085333 0.149625 0.364704
-0.156033 0.394520 0.032034
-0.189096 0.164609 0.348113
-0.023085 -0.047601 -0.228739
-0.068436 0.220339 0.054505
-0.233361 0.123173 0.309381
0.004011 -0.361661 -0.144971
-0.176449 0.129641 0.305514
-0.258744 0.240833 0.039782
0.042417 -0.064842 0.042658
-0.309790 0.112961 -0.042254
0.264703 -0.241150 0.359019
0.024515 -0.119707 0.132762
-0.027235 -0.035281 0.057156
-0.162802 -0.002929 -0.134057
-0.279132 0.133850 0.196853
-0.018333 -0.157739 0.035620
0.149982 -0.068667 -0.121338
-0.162057 -0.247002 -0.133179
-0.007000 0.410142 0.172320
-0.026219 0.326834 -0.020754
-0.193926 -0.170296 -0.156775
0.153630 -0.090423 0.077246
-0.137737 0.080223 0.068092
-0.172960 0.348257 -0.154059
-0.096382 0.363689 -0.182225
-0.027521 0.333473 -0.133282
-0.004633 0.115465 -0.006234
-0.263371 0.017132 0.235789
-0.172437 -0.156271 -0.013091
-0.228050 -0.054900 0.094855
0.014954 -0.107142 -0.194549
0.105512 -0.106804 0.039785
-0.193749 -0.061741 -0.072576
-0.110753 0.129681 -0.021604
0.022073 -0.330003 -0.137625
-0.214775 0.114959 0.148435
-0.313287 0.185474 0.073393
0.256082 -0.021497 0.022823
0.209951 -0.104240 -0.000208
-0.094427 0.500319 0.027710
-0.128257 0.256525 0.190319
-0.042998 0.163179 0.288186
-0.357494 0.069972 0.050494
0.085418 0.076510 -0.239941
-0.008334 0.355639 -0.014123
-0.147406 0.447746 -0.154352
0.134376 -0.168667 0.024440
-0.046212 0.201025 0.095761
-0.068627 -0.016403 -0.156024
-0.022713 0.281708 -0.047100
0.203783 -0.059141 0.150142
-0.121000 -0.135368 -0.241301
-0.108708 0.391936 0.307947
-0.057033 0.511656 0.123071
-0.272529 0.283946 0.040907
-0.059898 0.327958 0.159810
-0.218751 -0.172016 -0.033658
-0.030238 0.357267 0.119196
0.247742 -0.231441 0.073170
0.249043 -0.058941 -0.017399
0.041566 0.140840 -0.088956
0.191956 -0.295903 -0.051732
-0.082225 0.071089 0.277535
-0.200508 0.314103 0.216393
0.046625 -0.262249 -0.004632
-0.085034 0.213506 -0.093081
0.125119 0.008325 0.119295
-0.115567 0.022092 0.133043
-0.272825 -0.120256 0.047023
-0.053304 0.489923 0.159831
-0.075468 0.364613 -0.186278
-0.211316 0.130856 0.416534
-0.039129 0.293480 0.324527
-0.195384 0.246568 0.312802
-0.039811 0.489205 0.127593
0.070902 -0.251863 0.044610
-0.125813 0.095146 0.035640
0.090126 -0.032816 -0.105857
-0.189288 0.389790 -0.043333
-0.223432 0.062542 0.234825
-0.245901 0.265478 -0.201987
0.307070 0.000726 -0.053941
0.045196 -0.261773 -0.236536
0.027184 -0.061383 -0.208668
0.013105 -0.125617 -0.271000
0.033894 0.158706 -0.039236
-0.241290 0.280079 -0.243077
-0.057966 -0.269943 -0.167932
-0.282458 -0.214614 0.017411
0.044250 -0.152626 -0.273911
-0.347821 0.181461 -0.085680
-0.241720 0.293924 0.087567
0.178890 -0.288273 -0.149806
-0.049632 -0.224180 -0.186543
-0.017630 -0.188800 -0.082494
-0.063965 0.354493 -0.023300
0.087353 -0.003508 0.091766
0.142035 0.082268 0.102438
-0.133644 0.124791 0.088308
-0.143885 -0.150316 0.075156
-0.127025 0.195694 0.233144
-0.049716 0.204592 0.170042
-0.054882 0.215003 0.225097
0.212956 -0.023112 -0.175293
-0.149976 0.324207 0.258556
-0.125339 -0.229989 0.108497
-0.204341 0.256316 -0.027346
-0.152138 0.298237 0.336680
-0.334117 0.048036 -0.008526
0.247915 -0.249835 0.021201
0.013414 -0.170002 -0.244869
-0.151133 0.111924 -0.137497
-0.072344 -0.125153 -0.225731
0.062581 -0.277849 -0.107066
-0.076530 0.160041 -0.005821
-0.094235 0.408230 0.103302
-0.127989 0.095798 -0.034344
-0.230690 0.004581 0.284866
0.271410 -0.094126 -0.041848
-0.057926 0.154667 -0.022422
-0.139553 -0.119598 -0.251416
-0.096260 0.369197 0.373376
-0.060300 -0.231967 -0.085240
0.179262 -0.097108 0.066338
-0.099163 -0.332967 -0.059151
0.219553 -0.216708 -0.135591
-0.297538 0.038532 -0.054978
-0.208587 -0.047785 0.127904
-0.194159 -0.150054 -0.099248
-0.181394 0.015117 -0.141429
0.254666 -0.044185 -0.098284
0.234421 -0.066087 0.122675
0.090594 -0.273000 0.047927
-0.204862 -0.236736 -0.064115
-0.016028 -0.210789 -0.205847
-0.223487 -0.019738 0.089967
-0.224255 -0.200770 -0.148379
0.277533 -0.187783 -0.028551
0.154517 -0.219069 -0.153061
0.159627 -0.182361 -0.091425
-0.206535 0.156340 0.349573
-0.162137 0.079477 0.280306
0.325159 -0.145035 -0.112634
-0.034117 0.065280 -0.138217
-0.158206 0.291173 -0.180883
-0.209935 0.090102 0.087021
-0.199268 0.008971 0.101243
0.028517 -0.177172 0.077217
-0.162289 -0.296799 -0.011360
-0.053644 0.247233 0.003415
-0.143030 0.048093 -0.073573
0.038462 -0.218467 -0.240362
-0.237417 0.032731 -0.109747
-0.218179 0.266548 -0.165127
0.134221 0.051613 -0.071052
0.298701 -0.119072 -0.143812
0.009086 -0.229819 0.111704
-0.221417 -0.090034 -0.019256
0.036201 -0.187825 -0.125029
0.180231 0.064028 0.105213
-0.023035 0.101606 -0.153365
0.010297 -0.159067 0.200515
-0.147053 0.289057 -0.100783
-0.370316 0.061778 0.141554
0.022064 0.027501 -0.017941
-0.252934 0.002570 0.002783
-0.192262 0.469262 -0.186279
-0.074824 0.112657 -0.125947
0.053404 -0.260491 -0.049271
-0.101388 0.099375 0.356737
-0.324741 0.059850 0.232039
-0.179492 -0.177496 -0.094621
-0.392197 0.161132 -0.056268
-0.075628 0.224378 -0.137818
-0.085190 0.349302 -0.189340
-0.201689 0.159970 0.408958
-0.218276 0.224355 0.011005
0.125356 -0.255820 0.013774
0.179621 -0.130663 -0.019656
0.222637 -0.232659 0.346390
-0.079627 0.235730 -0.167117
-0.334509 0.069096 -0.024345
-0.241664 0.330382 -0.093829
0.233536 -0.246889 -0.127199
0.263080 0.144884 -0.454135
-0.022822 0.048018 0.088530
-0.221012 0.130767 0.466915
0.116058 -0.112877 0.002432
-0.155942 -0.192123 -0.159704
0.162485 -0.311396 -0.051227
-0.268501 0.026162 0.202842
-0.150625 -0.089002 -0.147645
0.097040 -0.042827 -0.196954
-0.113616 -0.059267 -0.102925
-0.062891 -0.286623 -0.182947
-0.184266 -0.326967 -0.102910
0.173008 0.114413 -0.352774
0.192186 0.098533 -0.049196
-0.157547 0.277376 -0.012597
-0.087151 0.038005 0.020114
-0.110548 -0.128603 -0.102824
-0.010777 -0.106998 -0.226348
-0.189936 0.372247 -0.185535
-0.220650 0.098958 0.359296
-0.008858 -0.111600 0.054343
0.198863 -0.110353 -0.121078
0.027558 -0.082523 0.159902
-0.181995 0.171944 -0.035848
-0.181820 0.211632 0.446682
0.124107 0.113025 -0.280620
-0.021300 0.015799 -0.109972
-0.142187 0.146002 0.020703
-0.282586 0.152781 0.080426
-0.373431 0.093996 0.179608
-0.049343 0.175555 0.289301
-0.218508 -0.207722 -0.104184
-0.206018 0.265657 0.065971
0.094472 0.112013 0.094827
0.124232 -0.215760 -0.221503
-0.152226 0.327483 -0.130760
0.044841 -0.057985 -0.006010
-0.034553 0.364103 0.121642
-0.132047 -0.181312 0.081590
0.164038 -0.145576 0.093518
0.149361 -0.203286 -0.067361
-0.192868 -0.131964 -0.143127
0.126063 -0.036089 -0.150455
-0.253685 0.021107 0.058010
-0.117411 0.049121 -0.146393
-0.166054 0.396155 0.074521
-0.014620 0.384036 0.024507
-0.308815 0.234254 -0.022199
0.274800 -0.137635 -0.081136
-0.129835 0.125097 -0.122313
-0.077349 0.165407 0.036024
0.025498 0.230622 0.113993
-0.342836 0.176914 0.077357
-0.044200 0.080842 0.236882
-0.097546 0.467681 0.003416
-0.080758 0.264165 0.352273
0.181862 -0.259952 -0.119342
0.049859 0.055183 -0.211227
0.076290 0.051482 -0.117861
0.309487 -0.064844 0.037811
-0.050436 0.092729 0.106670
-0.289136 -0.230276 -0.054194
0.016693 -0.313936 -0.148500
-0.022941 0.098839 0.227410
0.040150 0.042983 -0.082572
-0.317565 0.219575 -0.032406
-0.174569 0.102417 0.425746
-0.215395 0.428985 -0.174832
-0.177380 0.174120 -0.071943
-0.263949 0.261756 -0.191150
0.218586 -0.014255 -0.090406
-0.050010 -0.115266 0.150438
-0.133848 0.462957 0.055024
-0.065914 0.148496 0.188525
-0.317978 0.155819 0.058707
-0.228718 -0.008510 -0.084731
0.199334 -0.030208 0.155708
-0.060276 0.446186 0.033918
-0.222084 0.021595 0.274338
0.105596 -0.320751 0.001541
-0.251444 0.148590 0.078462
-0.144238 -0.049640 0.030009
-0.122239 -0.159167 -0.193333
-0.164070 0.102844 0.056951
-0.238416 0.165922 0.301695
-0.301153 0.054711 0.090247
0.070283 -0.190310 -0.175056
-0.201948 -0.182341 -0.154089
-0.018843 -0.114512 0.110476
-0.240143 0.048461 0.243414
0.122254 0.055005 -0.059478
-0.237877 0.076108 0.166531
-0.054329 -0.355539 -0.159903
-0.142912 -0.001865 -0.112215
-0.102694 0.364070 0.326277
0.220314 0.089121 -0.051872
-0.184390 0.406409 0.026331
0.072553 0.144744 -0.069577
0.329822 -0.097520 0.043728
0.204984 -0.139601 -0.011306
0.084091 -0.249041 0.087968
-0.011162 0.098628 0.199603
0.051190 -0.085666 0.167410
-0.170993 0.000304 0.030516
0.316612 -0.164786 -0.076562
0.022153 0.176216 0.053266
-0.165126 0.333499 -0.025010
0.117552 -0.177601 0.139384
0.096214 0.009168 -0.228188
-0.281668 0.249659 0.061923
-0.041612 0.328560 -0.115676
-0.272190 -0.177460 -0.076931
0.060695 0.076719 -0.017270
-0.115767 0.174755 -0.147709
0.161940 -0.042224 0.002011
0.048846 -0.127796 0.181478
0.094844 -0.174476 -0.198123
-0.174802 -0.004005 -0.031351
0.001766 0.155592 -0.049726
-0.029586 0.042445 0.065241
-0.092304 0.190084 0.348369
-0.154863 0.225881 0.153614
-0.278257 0.279002 0.033760
-0.182262 0.402866 0.043649
0.270536 -0.005823 0.074391
-0.082789 0.239606 -0.116953
0.169516 0.115577 -0.059785
-0.116252 0.261681 0.353222
0.005144 0.298140 0.191193
-0.209204 0.252600 0.049287
0.130367 -0.057578 0.006367
-0.107079 0.114119 0.121776
-0.224320 -0.121327 -0.045264
-0.068020 0.409222 0.115602
-0.025921 -0.068549 -0.040903
0.214129 -0.165940 -0.135806
0.142827 -0.221399 0.145294
-0.083182 0.009123 0.019697
-0.184760 0.028540 -0.124990
-0.232083 0.157711 -0.101165
-0.125016 -0.259867 -0.061375
-0.008830 -0.070607 -0.079107
-0.138199 0.117554 0.093413
0.115875 -0.045000 0.188565
-0.081285 -0.101923 0.075280
-0.082981 -0.079484 -0.047447
-0.194520 0.320258 0.002480
-0.031556 0.143157 0.287697
-0.118467 0.350639 0.004796
0.106978 -0.064359 -0.072202
-0.022313 0.286661 -0.067894
-0.221217 0.102816 0.179242
0.190959 -0.175565 0.113155
0.237684 0.120533 -0.386706
0.137281 -0.227258 -0.171789
-0.118371 0.483771 0.028987
-0.119486 -0.166065 -0.102075
-0.166077 0.003431 0.091513
-0.257018 0.041613 0.141347
0.013829 -0.202122 0.028313
0.050437 0.049442 -0.067768
0.270741 -0.081687 0.123521
0.121630 -0.141925 -0.071339
0.002004 -0.180308 0.067504
0.016912 -0.167260 0.185036
0.073653 0.107819 -0.223653
-0.168298 -0.092369 -0.118303
-0.162239 0.284169 -0.017982
-0.065643 -0.071188 0.164940
-0.104502 -0.166873 0.136475
0.320879 -0.089210 -0.114939
0.135836 -0.082686 -0.236086
-0.110815 -0.278362 -0.046357
0.095497 -0.249205 -0.064739
-0.186380 0.109634 0.337327
-0.017840 0.112517 0.068516
-0.060325 -0.159184 0.103273
-0.143285 0.093341 0.378373
0.207470 0.040403 -0.045988
-0.224743 0.287193 -0.168330
-0.180142 -0.139461 -0.166119
0.083682 -0.088904 -0.087885
0.212610 -0.067515 0.016398
-0.242266 0.225822 0.304341
-0.262070 0.323071 -0.152537
0.050112 -0.010251 0.027849
-0.135704 0.371744 -0.032949
-0.221313 0.061172 0.140855
-0.062924 0.165269 0.029383
-0.024460 0.275634 0.106725
-0.002599 0.063241 -0.014810
0.001331 0.069393 -0.054240
-0.138315 0.413240 0.128966
-0.202516 0.080596 -0.088270
-0.155456 0.242459 0.456852
-0.096591 0.091884 0.342064
-0.276153 0.201950 0.234752
0.009730 -0.000123 -0.029998
-0.055612 0.294820 0.082866
-0.121714 -0.032809 0.070654
0.106093 0.124240 -0.029040
-0.193144 0.254164 -0.221189
-0.093958 0.377073 0.268193
0.016050 -0.191680 0.123755
-0.194176 0.020201 -0.140805
-0.232313 0.324009 0.076739
0.302963 -0.072938 -0.003105
-0.138041 -0.163583 -0.069298
-0.179510 -0.179177 -0.186063
0.231360 -0.204310 0.009797
-0.149436 -0.184973 -0.169307
0.204858 0.050924 -0.030586
-0.177173 0.100474 -0.025091
-0.185353 0.263443 -0.127482
-0.318292 -0.053451 -0.029005
-0.209179 0.075416 -0.095220
-0.216776 0.154947 0.482649
-0.297364 -0.052803 0.011678
0.152283 0.093107 -0.181762
-0.161834 0.065894 0.080738
-0.063199 0.282134 -0.152742
-0.067423 -0.265717 0.090194
-0.290830 -0.110424 -0.078767
0.142476 -0.065121 -0.125247
-0.213255 0.263476 0.306740
-0.042580 -0.349297 0.069539
-0.154911 0.254842 0.438687
-0.108737 0.348758 0.031834
0.128948 0.110345 -0.192058
-0.362542 0.205359 -0.068989
-0.074978 -0.072777 -0.103301
0.281327 -0.196565 -0.149026
0.276188 -0.258632 0.430616
0.245498 -0.134036 -0.075775
-0.178814 0.248082 0.454173
-0.147906 0.202887 0.120126
-0.070266 0.007403 -0.155657
0.131040 -0.091646 -0.243593
-0.199473 -0.175733 -0.228193
0.161531 -0.038268 0.146425
-0.004788 -0.366829 -0.132638
-0.037644 0.070992 0.189758
0.172967 0.026034 -0.275526
-0.265811 -0.220243 -0.037289
-0.075282 0.377499 -0.066774
-0.101984 0.263248 -0.184814
-0.025825 -0.339422 0.055797
-0.267094 0.162788 0.384823
0.038721 0.067448 -0.268234
-0.032287 -0.078064 -0.021873
-0.074016 -0.247960 -0.235845
-0.126356 0.298595 0.048143
-0.192154 -0.009958 -0.049677
0.077721 -0.076833 0.219017
-0.226394 -0.119077 -0.051409
-0.181173 -0.125980 -0.026899
-0.111350 0.226864 -0.163032
-0.280802 0.308107 -0.053269
0.229886 -0.195360 0.087223
0.048152 -0.279681 0.034914
-0.150851 0.002053 -0.057494
-0.072744 0.329190 0.081855
-0.082126 0.167362 0.130963
-0.360221 0.103319 -0.015251
-0.265498 0.231475 0.034560
-0.232828 0.338250 -0.068142
-0.168668 -0.053861 0.111382
-0.028998 0.367932 -0.099979
-0.076813 0.270216 0.195793
-0.264370 0.323626 -0.036353
0.187074 0.004314 -0.047343
-0.241413 0.307961 -0.075546
0.175938 -0.213312 -0.069264
-0.097684 0.213766 -0.112255
0.003024 0.236687 0.184743
0.091242 0.027027 0.008218
0.157853 -0.245158 -0.047645
-0.302524 0.303122 -0.117237
-0.233609 0.284990 -0.134666
-0.193112 0.284359 0.320900
0.234542 -0.155780 0.102363
-0.113217 -0.239968 0.131455
0.226650 -0.118105 -0.009546
0.101616 0.094872 -0.255200
-0.212469 -0.133450 -0.122385
-0.190874 0.128925 -0.057049
0.156157 -0.227437 -0.071782
0.120417 -0.230445 0.148124
0.005175 -0.017055 -0.145036
0.193335 -0.038666 0.100524
0.215966 -0.172557 -0.162174
-0.010868 -0.195051 -0.122349
-0.030461 -0.048183 0.105336
-0.011441 -0.346072 -0.118012
-0.249864 0.023484 0.267051
0.022356 0.146719 0.105411
-0.215906 0.137467 -0.025353
0.014180 -0.362548 -0.129895
0.036198 -0.103645 -0.246623
-0.316861 0.037336 -0.033370
0.019556 -0.145191 -0.165547
0.178810 -0.275541 -0.141800
0.225173 0.049033 -0.113866
0.001273 0.032730 -0.093432
-0.158774 -0.093018 -0.050601
-0.181458 0.341351 0.173507
0.029956 0.150349 -0.062399
-0.138888 0.383270 -0.206335
-0.306159 0.166568 0.182989
0.199694 -0.298556 -0.065854
0.276598 -0.200003 0.027127
-0.008198 -0.284045 -0.157919
0.301405 -0.200060 -0.128516
-0.125205 0.048116 0.281265
-0.196103 -0.110610 0.026220
-0.147599 -0.173207 0.108981
-0.235707 -0.283515 -0.050550
0.170805 0.118712 -0.358292
-0.256706 -0.031345 -0.106337
-0.133070 -0.217803 0.138770
-0.096301 0.187422 0.129383
-0.296134 -0.207165 -0.073606
0.004940 0.066552 -0.103504
-0.097336 -0.309729 -0.137788
-0.143763 -0.125936 -0.100960
-0.121644 0.114311 0.218146
0.021873 0.111407 0.073578
-0.283732 -0.231783 -0.101358
0.263989 -0.061179 -0.169361
-0.225427 0.211979 0.401173
0.130160 -0.258165 0.057257
0.300756 -0.155812 -0.065606
0.205803 0.026925 -0.121503
0.166501 0.087965 -0.019696
-0.109479 0.236955 0.389195
-0.134307 0.332420 -0.037709
0.182372 -0.100787 0.083135
-0.152301 0.111561 0.052866
0.001122 0.265994 0.123540
0.006606 -0.073135 0.044810
-0.296282 0.002128 0.091763
-0.281384 0.189176 0.263137
0.309426 -0.078588 -0.081577
-0.167264 0.377879 -0.075396
-0.029457 0.321856 -0.014418
-0.217780 -0.258460 -0.157276
0.081390 -0.212209 -0.198050
0.209647 -0.072065 0.129048
-0.019130 -0.009028 -0.055635
-0.008183 0.183058 -0.051046
0.015888 -0.050448 0.043691
-0.223605 0.387459 -0.172830
-0.065040 -0.129085 -0.126985
-0.064295 -0.179011 -0.091730
-0.174398 0.064975 0.209800
0.001025 0.142240 0.065306
-0.127682 0.094650 0.237304
-0.050068 0.499836 0.168703
-0.200340 0.186028 -0.197705
-0.042469 0.275036 0.211202
-0.110088 0.240098 -0.036240
-0.344716 0.058109 0.290815
-0.037713 0.054402 -0.060788
0.011803 0.306462 0.025348
-0.183504 0.168716 0.289099
-0.088302 0.327299 0.179219
0.159657 -0.137445 0.194393
-0.096518 -0.243911 0.013908
-0.169674 -0.078417 -0.048772
-0.141913 0.310135 0.374303
-0.239834 -0.057299 0.086406
-0.210593 0.186315 0.392551
-0.161433 0.211966 -0.142040
-0.091399 0.030949 -0.158230
0.016542 -0.157029 0.013908
0.270305 -0.031291 0.096179
0.103404 -0.107639 -0.056851
-0.105201 0.282081 -0.100230
-0.291492 0.069280 -0.064319
-0.056486 -0.331700 -0.105081
-0.023651 0.003940 -0.096430
0.201244 -0.053618 0.174021
-0.170080 0.430139 0.013960
0.009666 0.042473 -0.054354
-0.228606 -0.094875 -0.051694
-0.025916 0.119544 -0.100013
0.092544 -0.147593 -0.180661
-0.099731 0.476689 0.023019
0.058078 -0.338442 -0.077557
-0.155002 0.215228 0.447546
0.018639 -0.227038 0.157534
0.150474 -0.003005 -0.007188
-0.023498 0.011709 -0.022678
0.051908 -0.358374 -0.054434
-0.129061 -0.190840 0.148761
-0.168690 -0.276555 -0.079725
-0.162907 0.154654 0.016209
-0.156788 -0.065169 0.106788
-0.280865 0.362353 -0.240721
-0.015926 -0.258989 0.084177
0.274337 0.024695 -0.125453
-0.159108 0.415408 0.092482
0.037220 0.088163 0.088804
-0.168457 0.269477 0.178093
-0.155757 0.010632 0.313059
0.326778 -0.094888 -0.012175
0.129996 0.118407 -0.297409
0.235809 -0.242736 0.353802
-0.084084 0.008879 0.040313
-0.239744 0.192480 0.402583
0.239814 -0.222538 0.324791
-0.053537 0.303232 -0.022264
0.152781 -0.004677 -0.226819
-0.113272 -0.049414 -0.188025
0.009118 0.018330 0.143230
-0.234210 0.037638 0.030695
-0.195550 0.238419 -0.071718
0.056106 -0.266456 -0.133262
0.176061 0.052258 -0.103307
-0.109673 -0.183586 0.153411
-0.045485 0.387296 -0.148210
-0.083349 0.111924 0.056604
-0.130848 0.282343 0.037416
-0.133376 0.317709 0.031302
-0.113599 -0.209914 0.147592
-0.246820 0.304033 0.008322
-0.062824 0.276829 0.301957
0.070648 -0.010717 -0.203875
-0.017736 -0.130487 -0.210330
0.020804 0.095739 -0.097643
0.072271 -0.053625 -0.078083
0.259010 0.028114 0.059631
-0.194266 0.289756 -0.156491
-0.165940 0.231593 -0.213753
-0.024667 -0.067215 -0.065045
0.132382 0.040338 0.013095
0.110165 -0.310307 -0.013763
-0.179851 0.320159 0.116068
-0.110976 0.292759 0.154303
0.164599 0.029369 -0.030927
-0.155446 -0.089440 -0.152842
0.015384 -0.273470 -0.132057
0.040036 -0.362349 -0.044516
-0.159346 0.033828 -0.051558
-0.167253 0.353339 -0.068032
-0.026186 -0.158628 -0.114533
-0.141642 0.189296 -0.021639
-0.251866 0.296016 -0.160635
0.169390 -0.255442 -0.095449
0.181135 -0.192232 -0.013920
-0.258972 0.099534 0.455497
0.255321 -0.067330 0.033888
0.066020 -0.146690 -0.067040
-0.065148 0.473790 0.094800
-0.202293 -0.166817 -0.027949
-0.072006 0.462391 0.057288
0.063231 -0.016097 -0.004873
0.244561 -0.031939 -0.107760
0.120509 -0.149616 -0.221880
-0.125480 0.012040 -0.038913
-0.175639 0.320958 -0.084762
-0.119663 0.349128 0.254631
-0.249849 -0.119668 -0.138384
-0.217294 -0.013143 -0.083274
0.042519 -0.309287 -0.041201
-0.251985 0.150129 0.224401
-0.077037 -0.068041 -0.056300
-0.199778 -0.277664 -0.160412
0.246234 -0.125775 -0.043499
-0.179133 0.033073 0.154920
-0.064603 0.271277 0.342326
0.011797 0.066450 -0.084974
-0.170938 0.271804 0.283652
-0.006936 0.265421 -0.067213
-0.253255 -0.004582 0.001082
0.075503 0.009398 0.189780
-0.182354 0.440225 -0.196573
-0.284252 0.213954 0.165678
-0.304434 0.025119 0.241830
-0.000789 -0.215790 -0.180287
0.120245 -0.159677 0.282532
0.048880 -0.059181 0.106912
-0.080574 -0.278412 0.086347
-0.036119 -0.131644 0.177392
-0.237501 0.001148 -0.068917
-0.059340 0.313174 -0.127124
-0.215475 -0.289915 -0.059122
0.199510 -0.189731 -0.097716
0.265745 -0.260286 0.404810
0.102625 -0.326172 -0.069873
-0.182201 -0.092376 -0.002798
0.136778 -0.157454 0.304380
0.204957 0.089937 0.027107
-0.211603 0.373024 -0.032063
-0.251484 0.307396 0.052986
-0.175377 -0.011328 -0.115820
-0.021459 -0.027238 0.147819
0.246456 -0.131684 -0.061565
-0.134870 0.129393 -0.040977
-0.055274 -0.241040 -0.156936
0.201799 0.076221 0.061433
-0.224953 0.056155 0.018813
-0.003452 -0.012485 0.164704
-0.143517 0.377361 0.124307
-0.227264 -0.022041 0.113406
-0.113227 -0.135977 -0.098525
-0.154497 -0.276719 0.019010
-0.230981 0.139402 0.023228
-0.142140 -0.123502 -0.032924
-0.108723 0.027893 0.266880
0.067418 -0.277553 -0.097550
-0.179795 -0.151789 0.047686
0.089606 -0.273416 -0.084734
0.217197 -0.165200 0.143764
-0.192331 0.126580 -0.066035
-0.089802 0.345512 0.270695
0.239354 -0.166082 0.022065
0.078238 0.007752 0.050057
-0.218863 -0.052567 0.096353
0.032655 -0.112435 0.095567
0.126960 -0.047912 -0.083184
-0.025393 -0.192728 -0.062288
0.087164 -0.060606 0.209867
0.128225 -0.129816 0.273019
-0.115983 0.060604 0.073615
-0.050142 0.397782 0.069774
-0.012453 0.154816 0.071353
-0.064535 0.287528 -0.005349
-0.237839 0.160762 -0.037759
-0.235818 -0.042133 0.108199
0.018031 0.039655 -0.006512
-0.251884 -0.123196 -0.014440
-0.143595 0.345329 -0.116095
-0.102754 0.103449 -0.146742
-0.133036 0.280494 0.160181
0.028004 -0.140445 -0.231261
-0.165581 0.387226 0.140009
-0.029211 0.178677 0.329240
-0.319124 -0.173801 -0.064589
-0.263357 -0.199914 -0.039358
0.211166 -0.169447 0.266424
-0.154635 -0.140217 -0.248425
-0.259349 -0.168739 -0.116024
-0.047084 0.485131 0.241522
-0.142730 0.287791 0.391052
0.078140 -0.168439 0.108109
0.039684 -0.287480 0.021306
-0.077169 0.409254 -0.093722
-0.112779 0.315665 0.395688
-0.313493 0.034321 0.020579
-0.384671 0.145339 -0.033929
-0.375731 0.135475 -0.031332
-0.263060 0.295928 0.042401
-0.194805 0.385432 -0.039453
-0.051505 0.162547 -0.074583
0.176484 -0.092667 0.020559
0.019404 0.299587 0.192783
-0.022982 0.258231 0.031013
0.191011 -0.168829 -0.206537
-0.255257 0.268404 -0.224633
0.286523 -0.195529 -0.067533
-0.068840 0.053354 0.200564
-0.112062 0.259995 0.416096
-0.013018 0.158979 0.099965
-0.223079 0.182899 -0.128380
-0.173766 0.431585 -0.003059
-0.217548 0.149215 0.192248
0.079078 -0.051168 -0.066514
-0.242895 0.040840 0.116980
-0.004071 0.048928 0.076454
-0.183398 -0.283673 0.060638
-0.115786 0.053269 0.186815
0.024553 -0.075598 -0.225301
0.114373 -0.319166 -0.168765
-0.018698 0.394649 0.147085
-0.182470 0.255088 -0.166347
0.079597 0.081839 0.118866
0.235154 0.093686 -0.360257
-0.264242 0.278065 0.008932
0.031574 -0.259129 0.022645
-0.266040 0.225517 0.031064
-0.180685 0.116675 0.447266
-0.179199 0.020125 0.132358
-0.123890 0.092316 0.217886
0.152748 -0.149912 -0.153517
-0.137547 0.204847 0.086225
-0.155322 0.432856 -0.064839
0.230124 0.073841 0.010040
-0.178142 -0.129525 -0.148877
-0.098641 0.158357 0.401038
-0.195536 -0.195625 -0.172098
0.292718 -0.104652 0.116861
-0.058289 0.468804 0.163587
-0.012206 0.034051 -0.011115
0.228525 0.094168 -0.067470
-0.182780 -0.136146 0.009172
-0.130706 -0.320294 -0.135231
0.149008 0.100184 -0.181293
0.162138 0.078633 -0.081871
-0.003358 -0.214984 0.141229
-0.208842 -0.202299 -0.124905
-0.332600 0.193631 0.068999
-0.071385 -0.368250 -0.103732
-0.027998 0.432133 0.091258
-0.224433 0.054401 0.007554
0.185881 -0.005921 -0.184883
-0.088711 0.453445 0.241180
0.003407 -0.308316 -0.045761
-0.190152 -0.204000 -0.125307
-0.014431 -0.155947 -0.256487
-0.242705 -0.127261 -0.134186
-0.109880 0.424708 -0.179902
-0.220024 0.145303 0.422573
-0.239541 0.155823 0.207735
-0.187817 0.345792 0.176203
-0.314024 0.034556 0.060066
-0.031278 0.421861 0.063997
-0.041212 0.484285 0.220349
-0.081496 0.320551 0.071770
-0.050552 0.235350 -0.125779
-0.033405 0.047037 0.079399
0.224569 -0.083230 -0.133507
-0.143478 -0.064628 0.091154
-0.163654 0.343563 0.268757
-0.150879 0.130305 0.296860
-0.355347 0.218570 -0.078769
-0.193933 0.179741 0.437440
0.112751 0.057448 0.145799
-0.307406 0.133490 0.162110
0.055319 -0.136503 -0.038261
0.206696 -0.205848 -0.001663
-0.244384 0.210840 0.336936
-0.093784 0.172551 0.395870
0.086184 -0.235529 -0.185005
0.122601 0.027185 -0.024173
-0.158887 0.067447 -0.122297
-0.082347 -0.095506 -0.012216
0.186114 -0.059961 0.195873
0.036836 -0.232172 0.115389
0.241445 -0.148438 0.153506
0.239057 -0.185332 -0.158609
-0.065947 0.208573 0.250373
-0.008960 -0.117648 -0.116444
-0.138973 0.057433 -0.050244
-0.037459 0.223897 0.231327
0.039538 -0.133628 0.076040
0.133221 -0.055903 0.038014
-0.275599 0.087604 -0.089063
-0.028812 -0.168877 -0.240884
-0.033447 -0.157732 -0.028670
0.099647 -0.176122 0.124707
0.015666 -0.085149 -0.012760
0.032136 0.188658 0.094582
0.135795 0.110889 -0.181165
-0.032788 0.003235 0.049317
0.271006 -0.073399 -0.086796
0.328269 -0.047436 -0.022024
0.114800 0.137356 -0.100908
-0.249844 0.050696 0.151134
0.143368 -0.124870 0.028957
-0.241623 0.188360 -0.184602
0.015874 -0.218649 -0.206749
-0.054370 0.303687 0.322864
-0.260355 0.104991 0.279150
-0.244312 0.208459 -0.088562
0.017226 -0.152752 0.190521
-0.227808 0.065852 0.219994
-0.139478 -0.116169 -0.237569
-0.090566 0.151392 -0.115569
0.192718 -0.000399 -0.066045
-0.097401 0.485727 0.123755
0.041478 -0.296616 0.061103
-0.016301 0.005852 -0.092183
0.166123 0.022135 0.072418
-0.052839 -0.005741 0.088439
-0.187495 0.252287 0.012230
-0.079952 0.221522 0.190821
-0.149076 -0.067369 -0.225406
-0.016595 0.248389 -0.014440
-0.137261 -0.094736 -0.046821
-0.129881 -0.247516 -0.080168
-0.017550 -0.200360 -0.207214
0.219878 -0.215679 0.114243
-0.016003 0.037594 -0.059763
-0.179718 0.050155 0.152231
-0.203313 0.216649 -0.216538
0.174053 0.100151 -0.087198
-0.295155 0.242893 -0.091901
-0.092394 0.370843 0.255024
0.123147 -0.187943 0.180263
-0.282927 0.159060 0.115479
-0.241917 0.173310 0.006611
0.058118 0.153537 0.024433
-0.162674 -0.067820 -0.182335
-0.214498 -0.056132 -0.020398
0.136378 -0.238964 0.133487
0.192466 -0.182068 0.119465
-0.176691 0.043937 0.084666
0.010969 0.050950 -0.028716
0.108263 -0.204913 -0.036088
-0.108864 0.258842 0.425838
-0.230230 0.344346 0.029674
-0.273824 0.237884 -0.184330
-0.100947 0.247384 0.357087
0.013388 0.048618 -0.225624
-0.043270 0.174026 0.296360
0.261748 -0.095722 -0.049448
-0.188694 0.038666 0.308422
0.214566 0.095405 -0.056662
-0.008978 0.344755 0.251046
-0.101507 0.006769 0.022611
-0.143421 0.107342 0.101902
-0.248578 0.328132 0.000592
-0.161125 0.402186 -0.203520
-0.269928 -0.183401 -0.151172
-0.172955 -0.103161 0.044092
-0.038184 0.314434 -0.144736
0.012659 0.066028 -0.092941
0.042609 0.154112 -0.045540
-0.016613 0.284612 0.088694
-0.043455 0.204706 -0.107557
-0.001229 0.080932 -0.019154
-0.039729 0.442314 -0.106559
0.044740 -0.244044 -0.113716
0.081441 0.064311 -0.192056
-0.106601 0.016279 -0.112606
-0.201739 0.379552 -0.041428
-0.149153 0.178973 0.316220
-0.179236 0.317510 0.081677
-0.010028 -0.176537 -0.164374
0.176378 0.108571 -0.048721
-0.191616 -0.242552 -0.017008
-0.100109 0.434794 0.002929
-0.182656 0.394830 0.063787
-0.172094 0.143580 0.229710
-0.229076 0.092970 0.371945
-0.228091 -0.121431 -0.081836
-0.047909 0.482608 -0.054538
-0.171412 -0.009103 -0.024434
-0.144517 -0.013282 -0.105878
-0.125274 0.073109 -0.136723
0.064357 0.024969 0.176332
-0.005412 0.247170 0.115220
0.204476 -0.202676 -0.060949
0.011983 0.099893 -0.100081
0.042370 -0.293085 -0.084821
-0.046702 -0.068056 0.087952
-0.186503 -0.161059 -0.148322
-0.202760 -0.132510 0.024900
-0.282654 0.141695 0.381267
0.109861 -0.019017 0.160208
-0.053340 -0.154380 -0.238657
0.159747 0.062767 -0.089252
-0.104536 -0.099181 -0.108699
0.085310 -0.038319 0.021148
-0.176582 0.183677 -0.061939
0.001871 -0.250687 0.142882
0.243099 -0.218480 -0.132875
-0.269682 0.143803 0.269684
-0.132566 0.066326 0.384485
-0.221157 -0.010773 -0.052057
-0.121504 0.265056 0.349359
0.098959 -0.252507 0.097069
-0.089017 -0.099877 -0.143139
0.252811 0.106739 -0.409859
-0.119505 0.039462 0.220321
0.180843 -0.264259 -0.091281
-0.052408 0.113792 0.256288
-0.019696 -0.086896 -0.037300
-0.318398 -0.056656 -0.020273
0.214451 0.013891 0.023501
-0.137544 0.150306 0.167513
-0.098652 0.153631 -0.056115
-0.293413 -0.079836 -0.109346
0.124249 -0.055495 -0.216062
-0.120970 0.275332 -0.088958
-0.083636 0.499056 0.065656
-0.128591 0.345044 0.018501
0.193959 0.060433 -0.307842
-0.351107 0.051440 0.027517
-0.255224 0.102626 0.195240
-0.281230 0.019479 0.237413
-0.003056 -0.089935 -0.049365
-0.174292 0.242799 0.070384
-0.076631 0.019095 0.053242
-0.287182 0.299874 -0.227816
-0.234092 -0.270357 -0.100517
-0.291265 -0.000857 0.007134
0.174356 0.024616 -0.216207
-0.264215 -0.080866 0.023373
0.055502 0.037056 -0.027978
-0.227887 -0.227940 0.073049
-0.084565 -0.026602 -0.093662
-0.300310 0.177335 -0.139749
0.201726 -0.085364 0.130974
-0.091346 0.460311 -0.136309
0.082966 -0.076182 0.233570
-0.250505 0.045960 0.115295
-0.170272 0.179197 -0.064060
0.020034 0.359453 0.126052
-0.065998 -0.202848 0.071276
-0.013176 -0.336330 0.014687
0.119579 0.101438 -0.192025
-0.239142 0.384871 -0.110614
-0.273176 0.149904 0.060886
-0.202476 0.110358 0.078892
-0.281010 0.031809 0.177542
-0.186110 0.343251 0.189199
0.064806 0.081760 -0.023244
-0.235501 0.170446 -0.004516
0.063338 -0.089911 0.008810
0.070384 -0.157331 -0.053894
0.186797 -0.185357 -0.119645
-0.230056 0.081265 0.248561
-0.240079 -0.038872 -0.108935
0.095451 0.029797 0.150107
0.089821 -0.111117 -0.126053
-0.007962 0.118769 0.205301
-0.041448 -0.247824 -0.022673
0.174124 0.006307 -0.094711
-0.085158 -0.073780 -0.053816
-0.183386 0.316368 0.098175
-0.011356 -0.265509 0.094065
-0.030764 0.216470 0.126900
-0.181189 0.068658 0.262868
-0.246464 -0.268969 -0.115912
-0.158801 -0.051440 -0.160614
0.129626 0.068596 -0.125057
0.090871 -0.011154 0.112526
-0.211500 0.032267 -0.089684
-0.197627 0.020399 -0.084041
-0.047260 0.031161 0.106567
0.011969 0.010264 -0.154664
-0.172891 0.112837 -0.130809
-0.114799 0.094283 -0.101499
-0.287294 0.025398 0.008884
-0.205125 0.202034 0.406382
-0.256564 0.052974 0.113332
-0.184387 0.156618 0.436777
-0.097730 0.343357 0.305587
-0.129078 0.091699 -0.094286
-0.137943 0.329349 0.251688
0.047996 0.047597 -0.159222
-0.195059 -0.209538 -0.140484
-0.219016 0.317973 0.114786
-0.183621 0.349346 0.182136
-0.135862 0.253863 0.322380
-0.229830 -0.191965 -0.195468
0.063725 -0.159511 0.262891
0.125465 -0.251127 -0.205879
0.097466 -0.090649 -0.010920
-0.305727 0.065686 0.213465
-0.146498 -0.040065 -0.164951
-0.095021 -0.324682 0.045050
0.270283 -0.174829 -0.022791
-0.000851 0.325141 0.184868
-0.210975 0.214230 -0.155871
0.191623 -0.003865 -0.165578
-0.383138 0.166225 -0.043876
-0.044975 0.475107 0.084072
-0.347649 0.148324 0.076502
-0.204934 0.179055 0.385447
0.131839 -0.064052 0.010729
-0.120330 0.044909 0.254718
-0.092317 -0.055251 0.155306
-0.183581 0.095506 0.264020
-0.082145 0.152278 -0.121584
0.224251 0.118003 -0.375100
0.192350 0.133500 -0.356861
-0.316912 0.179335 0.163154
0.048299 -0.185105 0.051894
-0.259805 -0.219857 -0.068772
-0.302695 0.175339 0.181804
-0.186895 0.168753 -0.173173
0.000450 0.187702 0.015404
0.062365 -0.150934 0.281369
-0.292649 0.032413 0.014257
-0.315434 -0.166012 -0.094699
-0.275282 0.133038 0.371006
-0.309030 0.051591 0.312900
-0.249742 0.271454 -0.037088
-0.269172 0.048943 0.014076
-0.094132 0.082110 0.334091
0.201782 -0.210261 -0.027511
-0.035848 -0.079492 -0.197707
-0.219330 0.105631 0.270597
0.045471 -0.075999 -0.027171
-0.234227 -0.003012 -0.073035
-0.252201 0.064038 0.408658
-0.206813 0.415288 -0.077920
-0.158574 0.236507 0.413462
-0.195020 -0.260315 -0.012607
0.070661 -0.110738 -0.246451
-0.093185 -0.096869 -0.055251
-0.056502 0.012219 -0.153752
-0.067284 0.372339 0.313166
0.056864 -0.130091 0.048321
-0.206574 0.069541 0.350876
-0.047149 0.250569 -0.007975
-0.096121 0.333756 0.281275
-0.163646 0.161310 -0.157634
0.272953 -0.032878 -0.018093
0.223684 -0.099166 -0.207651
0.236617 -0.038748 -0.195723
0.054244 0.054280 0.104471
-0.053834 -0.212069 -0.182448
0.180188 0.080601 -0.219722
-0.287495 0.255326 0.058988
-0.006484 0.242372 0.244793
0.121851 -0.223745 -0.012904
-0.039524 0.469899 0.248593
-0.283199 -0.234202 -0.047572
-0.117438 0.471488 0.020954
0.071804 -0.010178 -0.049058
0.094497 -0.228827 -0.002426
-0.346732 0.112593 -0.028686
0.259771 -0.009011 -0.104759
-0.153264 0.375485 0.104629
-0.132556 0.498312 -0.035082
-0.033416 -0.052885 0.032784
-0.209119 0.231856 -0.047909
0.038370 -0.041700 -0.185386
-0.144842 0.140044 0.153287
-0.244820 0.005719 -0.104288
0.059706 -0.177109 -0.203249
-0.254989 0.138498 -0.035011
-0.030235 -0.005210 0.055421
-0.151651 0.285676 0.267779
-0.291733 -0.186086 -0.101925
-0.271738 0.152736 0.092604
0.245252 -0.187360 -0.090325
-0.217055 -0.213638 -0.174802
0.059103 0.124464 0.019555
-0.097113 0.127672 -0.111758
-0.216593 -0.070603 0.042290
-0.119986 -0.075406 0.165100
-0.228025 0.000069 0.030223
-0.001128 0.076154 0.078041
-0.119914 -0.223408 0.140205
0.093551 0.043247 -0.086010
-0.150487 -0.232739 0.101309
0.101016 -0.307749 -0.076727
-0.046125 -0.065067 0.152740
-0.211385 0.214546 0.149668
0.014952 0.067858 0.151253
0.020287 0.349982 0.135561
-0.199524 0.158198 0.478944
-0.101516 0.313703 -0.039835
-0.021086 0.304322 0.235199
-0.279384 0.030463 0.157632
-0.069129 0.387910 0.118020
-0.244136 0.309797 -0.097886
-0.061665 0.027509 -0.016974
-0.286083 0.141344 0.370723
-0.224275 -0.046848 -0.007852
0.166882 0.095077 -0.082327
-0.030879 0.207733 -0.086765
-0.293249 -0.002737 0.054915
-0.080026 0.324861 -0.144320
-0.310951 0.209359 -0.092733
0.004902 -0.100040 0.186104
0.199064 -0.270620 0.051164
-0.218103 0.274704 -0.164286
-0.092943 -0.297075 -0.041603
0.076414 0.004446 0.177080
-0.128120 0.367105 0.034146
-0.302771 0.042225 0.056998
-0.256060 0.295256 0.069234
0.088363 0.141919 0.051531
0.073061 0.020976 0.165633
-0.145622 -0.254406 -0.053195
-0.291279 0.232970 0.000229
-0.052256 0.156204 0.071061
-0.318887 0.191794 0.122751
0.063732 -0.106793 0.249200
0.294240 -0.167397 -0.150059
-0.192613 0.011720 -0.144102
-0.173713 0.274191 0.345161
0.186674 -0.178537 0.339216
-0.016612 0.276211 0.106560
0.001167 -0.174668 0.053922
-0.151708 0.147226 0.019052
-0.257874 0.111396 0.283045
-0.258632 0.123684 0.288925
-0.307274 0.135243 0.281156
-0.189231 -0.278940 0.038924
-0.179690 0.057886 -0.104998
-0.032085 0.368354 -0.001343
0.089074 -0.285948 -0.174309
-0.089005 0.437213 -0.038437
-0.187129 -0.130177 -0.150581
0.235498 -0.265022 -0.148250
0.152861 -0.130774 0.146122
-0.285060 0.056417 0.276595
-0.033053 -0.186856 -0.260067
-0.179677 0.279492 -0.184083
-0.223045 -0.288263 -0.102350
-0.313035 0.141640 0.138890
-0.277907 0.267974 -0.200393
-0.213207 0.221853 0.305790
0.315468 -0.050010 0.050450
0.093119 -0.186486 -0.078124
-0.191560 0.096796 0.306554
-0.141995 -0.085810 0.030920
-0.221110 -0.289197 -0.048021
0.282862 -0.083856 0.035495
-0.246789 0.282630 0.136061
-0.177370 -0.007404 -0.090938
-0.185419 0.455926 -0.181164
0.020958 -0.120899 0.084275
-0.286235 0.089228 0.447555
0.094334 -0.230518 -0.056028
0.277650 -0.245153 -0.107103
0.042602 -0.023734 0.000810
0.176182 0.097969 -0.047087
-0.087360 0.222157 0.118253
-0.089900 0.068668 0.291968
0.020268 0.105354 0.054877
-0.196401 0.019089 0.148606
0.186781 -0.108826 0.127225
-0.140505 0.163215 -0.076182
-0.332619 0.226096 -0.017974
0.120927 -0.141518 0.015203
-0.128848 -0.037202 -0.196237
-0.195921 0.248558 0.018702
-0.171026 0.351526 -0.074609
0.334560 -0.067637 -0.090325
-0.217573 -0.205692 -0.123145
0.119614 -0.108892 0.167102
0.020854 -0.159057 0.186988
0.071681 -0.275931 -0.180917
-0.033007 0.129840 -0.125028
-0.347175 0.159542 0.108449
-0.121459 0.291462 0.409795
-0.201871 -0.075208 -0.201918
-0.046470 0.269335 0.358353
0.112545 -0.180391 0.198690
0.188126 0.128287 -0.344410
0.027586 -0.110867 0.012334
0.012653 -0.091982 0.003873
0.096219 0.002317 0.017149
0.092889 -0.125157 0.208531
-0.117578 -0.213221 -0.135058
-0.157858 0.337197 -0.040674
-0.035134 0.044672 -0.017848
-0.212339 -0.127072 -0.138872
-0.216960 0.234371 -0.111016
0.152861 -0.214404 0.129625
-0.299516 0.160702 -0.101734
-0.203274 -0.019817 -0.155151
0.079370 -0.206107 -0.187501
-0.098768 0.380722 -0.073085
-0.190683 0.167036 0.372021
0.186053 -0.077938 -0.147509
-0.174537 0.122490 -0.070832
0.173149 0.020988 0.091387
-0.346109 0.194177 0.019463
-0.089841 0.256625 0.019731
-0.149811 0.435099 -0.166080
-0.017201 0.057741 -0.204069
-0.214690 0.144720 -0.127051
-0.185055 -0.194563 0.027249
-0.020384 0.091854 0.170854
0.114173 -0.287957 -0.168665
-0.072394 0.384552 0.325876
0.226020 -0.194336 -0.103680
-0.239186 0.313051 -0.138699
-0.066555 0.491212 0.007469
-0.149489 0.421867 0.011736
-0.131784 0.179596 0.137726
-0.030050 0.276483 0.311047
-0.191726 0.225286 0.255396
0.265395 0.033937 0.002757
0.333767 -0.090950 -0.082115
-0.231421 -0.011035 0.067170
-0.066520 -0.025345 -0.062527
0.093911 -0.195623 0.083606
-0.007099 0.093495 0.187806
-0.231776 0.288369 0.072036
0.118670 -0.294242 -0.190326
-0.023079 -0.038041 -0.111177
0.018395 0.051033 0.088631
0.309111 -0.035747 0.042517
0.190541 -0.007840 0.082707
-0.296486 0.155859 -0.029344
-0.064400 -0.223558 -0.113697
-0.007609 0.033325 -0.091116
0.059777 -0.254286 -0.201093
0.189586 -0.118784 0.101414
0.152103 0.002749 -0.001936
-0.115367 0.151095 0.118633
-0.012588 0.284036 -0.089715
0.219621 -0.091093 -0.074895
-0.157783 0.412032 0.077500
-0.043281 -0.161538 0.145427
-0.275813 0.209517 0.125588
-0.225029 0.023245 0.238285
0.197963 0.058680 0.044916
-0.207159 0.078662 0.304688
-0.045523 -0.244826 -0.262666
-0.234894 0.094936 -0.006122
-0.187297 -0.123927 -0.232263
0.173642 -0.267573 -0.055355
-0.178989 0.156370 0.400780
0.058252 0.141009 -0.093445
-0.295339 0.146232 0.328629
0.278826 -0.231553 -0.069653
-0.156228 0.437667 -0.058755
-0.164965 0.121085 0.142220
0.138907 -0.186167 -0.072100
-0.130927 -0.180886 -0.091592
0.106212 -0.166596 -0.118586
-0.318188 0.233275 0.012037
-0.133149 0.298033 -0.206682
0.063169 -0.290476 -0.207905
-0.224617 0.048446 0.000990
-0.384504 0.129548 0.019992
0.133518 -0.063027 -0.163096
-0.278110 0.238526 -0.196939
-0.229953 -0.080115 -0.098560
0.165216 -0.053012 0.095425
0.113828 -0.344815 -0.117002
-0.062130 0.179726 0.348599
-0.183978 0.184241 0.261765
0.136342 0.017655 0.008894
-0.044200 0.467026 0.254678
0.031216 0.066196 0.020695
-0.026287 -0.140452 -0.084531
0.210483 -0.297582 -0.139260
-0.273139 -0.001111 0.020370
0.300527 -0.102662 0.098449
0.270933 -0.100960 0.111092
0.112960 -0.340724 -0.009671
-0.271755 -0.069359 -0.019614
-0.212854 0.255773 0.073329
-0.250970 0.198061 0.347728
-0.148428 0.187984 0.001517
-0.031524 0.245502 0.287209
-0.183799 0.459680 -0.114203
-0.182649 0.139673 0.464417
0.162301 -0.149708 -0.115328
0.002939 -0.066997 -0.035544
-0.037207 -0.195905 0.034744
-0.030676 -0.230905 -0.180783
0.190358 0.033803 -0.246855
0.161291 0.079683 -0.214069
0.014114 -0.186738 0.141282
-0.101619 0.375068 -0.109237
0.052982 -0.002488 0.012307
-0.311105 0.139581 0.290323
-0.122663 0.255436 0.170664
-0.059008 0.467027 0.150416
0.188322 -0.101753 0.025426
0.207881 -0.080571 0.082595
0.108670 -0.245957 0.063980
0.052618 -0.285275 -0.149989
-0.061308 -0.207736 -0.027175
-0.278613 0.227737 0.091971
-0.292421 0.028324 0.276478
-0.151400 0.069126 0.232261
0.243727 -0.131441 0.138640
0.267496 -0.171204 -0.014904
-0.117439 0.344127 -0.024380
0.013086 -0.270758 -0.187250
0.136532 0.118722 -0.033185
-0.084305 0.437068 -0.110152
0.080497 -0.077516 -0.101912
0.199407 -0.043380 0.083438
0.313434 -0.176333 -0.128417
-0.140220 -0.211612 -0.159768
-0.218494 -0.109899 -0.014496
-0.056917 0.411111 0.260661
-0.024233 0.396076 0.171153
-0.140072 0.180151 0.154602
-0.260766 0.274804 0.107270
-0.159491 0.422083 0.073174
0.022107 0.132929 0.037741
-0.208401 0.247813 0.339947
0.286548 -0.255353 0.410644
-0.094841 -0.133110 -0.233564
-0.220681 0.293860 0.198911
-0.005180 -0.236107 0.133965
-0.148593 0.187324 -0.052209
-0.188435 -0.249692 -0.040895
-0.150840 0.141070 0.381132
-0.068321 0.164430 0.178313
-0.143975 0.270099 0.153172
-0.123770 0.278586 0.412722
-0.092595 -0.037056 0.185738
-0.081207 -0.102534 -0.048918
0.313007 -0.225303 -0.002244
-0.172672 -0.274039 0.036499
0.074609 -0.052176 -0.102049
-0.216484 0.022854 0.050453
-0.356146 0.114342 0.062710
-0.007316 -0.098494 -0.064771
0.261740 -0.158065 0.105718
0.047406 0.109570 -0.160871
-0.003934 0.141222 0.016768
-0.153231 -0.098532 -0.124669
-0.171842 -0.287255 -0.062751
0.048537 -0.210633 0.079879
-0.235526 0.355283 -0.218325
-0.132329 0.087692 0.250939
-0.349685 0.081843 0.159458
-0.149586 0.402232 -0.168237
0.134979 -0.135094 -0.119092
0.240182 0.078612 -0.022780
-0.178177 0.319644 -0.242806
-0.077581 -0.186070 0.039413
-0.029097 0.283156 0.102391
-0.158238 -0.295103 -0.149962
-0.146753 -0.005676 0.081533
-0.117649 0.523193 -0.048679
-0.066621 0.491562 -0.049285
-0.361093 0.139192 0.113416
0.109404 0.043058 0.127320
0.105732 0.045486 0.138865
-0.180608 0.212333 -0.180516
-0.066420 0.031221 -0.030709
-0.205018 0.173287 0.052388
0.027621 -0.318372 -0.054454
-0.090780 0.396790 -0.112310
-0.267877 0.241583 0.026638
-0.383458 0.169580 -0.050911
-0.223901 0.036354 0.165739
0.165712 0.026965 0.079211
-0.129708 0.158370 0.381049
0.160502 -0.280800 0.035069
-0.015763 -0.150065 -0.112265
-0.166132 0.126954 0.445629
-0.338229 0.053624 0.155962
0.282084 -0.121818 -0.127913
-0.066842 -0.022579 0.041270
0.212157 -0.211628 0.041512
0.062678 -0.132484 -0.169890
-0.046184 0.180915 0.158884
-0.213609 -0.175196 -0.217902
-0.167163 -0.080813 -0.141998
-0.240167 0.340566 -0.113596
0.181717 -0.248476 -0.140608
-0.136897 -0.158960 0.072436
-0.108637 -0.191338 0.025381
-0.185533 0.157598 0.181798
-0.132216 -0.054478 0.075834
-0.088661 0.102204 0.086967
-0.224328 0.103373 -0.119905
-0.077136 0.508579 0.134685
-0.268936 -0.031725 0.070218
-0.298495 0.305879 -0.110282
0.121891 -0.289295 0.029661
-0.113083 -0.321966 -0.075255
-0.237326 0.046034 0.327734
0.025990 -0.265591 -0.181060
0.225429 -0.110826 -0.199521
0.176145 -0.260456 0.036234
-0.300841 0.041176 0.377884
0.039751 -0.060315 -0.122308
0.186202 -0.237261 -0.055458
-0.146263 0.113139 -0.130531
-0.162714 0.329063 -0.012892
-0.031568 -0.149888 0.066170
-0.118866 0.410001 0.250216
-0.064870 0.506565 0.183744
0.165288 0.037354 -0.189319
-0.100850 -0.330431 -0.134453
0.200496 -0.121448 0.208556
-0.304141 0.025476 0.169184
-0.097186 0.320648 0.396698
-0.064230 0.160959 0.270118
-0.132311 -0.119902 0.105114
-0.039834 0.438559 -0.088154
-0.312477 -0.149472 -0.076642
-0.188627 -0.267112 -0.003853
-0.047982 0.464756 -0.094222
-0.109118 -0.152370 -0.157485
-0.123427 -0.038209 -0.007283
-0.059356 0.350426 0.336391
-0.190218 0.251608 0.316162
-0.219566 0.278990 0.198466
-0.264160 -0.052261 0.048535
-0.130578 0.169389 0.092653
-0.361415 0.089210 0.081061
0.225648 -0.301720 -0.047518
-0.125204 -0.236074 -0.112243
-0.150344 0.348068 0.044683
-0.197011 -0.077667 -0.022006
-0.133385 0.199020 0.017939
-0.184259 -0.047474 -0.179284
-0.091677 0.248571 -0.159868
-0.067037 0.055370 0.213255
-0.215476 0.052589 0.054259
0.201101 -0.157223 -0.144259
0.097880 0.042978 0.077315
-0.157493 -0.116027 -0.110669
0.039489 -0.251131 0.138964
-0.075138 -0.098305 -0.147162
0.289933 0.003706 0.041283
-0.122323 0.145419 0.415576
-0.004093 0.405441 0.167126
0.021386 -0.292190 0.056619
0.124267 0.110493 -0.150740
-0.064306 0.152601 0.080764
0.076062 -0.212762 0.007250
0.196581 -0.036608 0.087515
-0.295385 0.075358 0.429377
0.240654 -0.025752 -0.130511
-0.102733 0.013674 -0.192163
0.104854 0.030117 -0.167948
-0.039733 0.147526 0.309768
0.043979 0.094025 0.138475
0.171498 0.017372 -0.231931
-0.264790 0.102682 0.202747
-0.110511 0.319533 -0.087959
0.186776 -0.081324 0.201081
-0.268647 -0.030984 0.062365
0.122142 -0.257019 -0.094443
-0.276806 0.003691 0.117533
0.018217 0.013381 -0.046913
-0.060106 -0.086016 -0.160576
-0.165784 0.007132 0.170458
-0.323160 0.123686 0.289991
0.113946 -0.228450 0.046540
-0.144526 0.149432 0.382171
0.135156 0.101131 -0.163795
-0.089414 0.427503 0.059753
0.115528 -0.286292 -0.196614
0.150568 -0.261112 -0.150027
-0.283296 -0.099574 -0.126884
0.015425 0.081741 0.004489
-0.164869 0.260847 0.338198
-0.201095 -0.287003 -0.005736
-0.021067 -0.110042 0.095566
0.145210 -0.247609 0.022839
-0.218146 0.066307 0.349434
-0.245053 0.272245 -0.244387
-0.073835 0.371344 0.348371
-0.271221 0.118201 0.094544
0.155966 0.134392 -0.349326
0.012741 0.165333 0.165373
-0.078618 -0.102431 0.068741
-0.135109 0.045336 -0.138734
0.034756 0.165272 0.084725
-0.245830 0.311304 0.062657
0.245289 0.021646 -0.113945
-0.096272 0.422607 0.282985
-0.017961 -0.077743 0.190114
-0.087577 0.456699 -0.120682
0.081300 -0.203025 0.169984
-0.047494 0.403162 0.279731
0.296110 -0.203683 -0.072858
-0.202301 0.136361 0.436400
-0.170316 0.138503 -0.086598
-0.297138 0.142776 -0.107054
0.058999 -0.066572 -0.036933
-0.197586 0.077946 0.006288
0.225765 -0.112944 0.023782
-0.198702 0.075477 0.370753
-0.302999 0.295485 -0.139391
-0.102870 0.253918 0.151182
-0.293865 0.309773 -0.157597
-0.070215 -0.189767 -0.151015
-0.185136 -0.179953 -0.179871
0.272521 -0.072996 0.062628
0.285479 -0.107175 0.130985
-0.157095 -0.078190 0.103530
-0.105672 0.337731 -0.052505
-0.202315 0.055609 -0.034989
0.315539 -0.221297 -0.045422
0.025063 -0.290653 -0.005300
-0.074868 0.494265 0.068952
-0.163007 -0.010212 -0.100355
0.285868 -0.208275 -0.073383
-0.276582 -0.113351 -0.135670
-0.148962 0.248232 0.331756
-0.043736 0.241182 0.112346
-0.122606 0.001863 -0.145238
-0.199451 0.352424 0.106344
-0.017246 -0.266043 -0.028550
-0.187716 0.281404 0.156492
0.094751 0.044704 0.166772
0.061947 -0.208182 0.166666
-0.020293 0.213070 0.065121
0.209199 -0.217267 -0.166994
-0.151230 0.341041 0.319748
-0.131740 0.195167 0.127418
0.056590 -0.267521 -0.227341
-0.101121 -0.287739 -0.001813
-0.255097 0.007198 0.080655
-0.101836 0.259257 0.101294
0.065323 0.125060 -0.101564
-0.220799 0.110720 0.411717
-0.332048 0.267324 -0.126671
0.183069 0.063060 -0.024176
-0.346097 0.103612 0.118410
0.032352 -0.188959 -0.059048
-0.236517 0.212419 0.134150
-0.241059 -0.075865 0.053204
0.015878 -0.063452 -0.020353
-0.023734 0.076157 -0.180566
-0.016032 0.120930 0.228794
-0.153921 0.332775 -0.236581
0.088121 -0.029928 0.002800
-0.028499 0.158707 -0.102534
-0.270164 0.303406 -0.011432
-0.185484 0.372043 -0.190737
-0.337337 0.161409 0.138472
0.008772 0.142623 0.138714
-0.300853 0.226088 0.094977
-0.198251 0.357794 -0.226405
-0.111714 0.354820 0.255507
-0.020665 0.261070 -0.082231
-0.151649 0.279339 -0.118516
-0.132107 0.420345 -0.186244
-0.059666 -0.342235 0.031033
-0.239413 0.170591 0.462453
0.127603 -0.124014 0.267184
0.194002 -0.059881 0.161110
-0.025195 -0.128802 0.192370
-0.191240 -0.056923 -0.197581
-0.205690 0.207153 0.339166
-0.175318 0.333780 0.243497
0.008407 0.048796 0.116601
-0.256058 0.031668 0.041192
-0.012161 -0.058233 -0.068427
-0.269022 0.189153 -0.120107
-0.016917 0.111041 0.161395
-0.099285 0.110054 0.365064
-0.258390 0.180736 0.347561
-0.280669 -0.074699 0.045009
-0.008759 0.297937 0.259031
0.149655 -0.155742 -0.109607
-0.168953 0.300167 -0.031205
-0.273013 0.222453 0.203916
-0.049754 0.355432 0.076182
-0.282502 0.345320 -0.159405
-0.140402 0.147342 0.227037
0.209276 0.061624 -0.071094
-0.322896 0.090893 -0.013488
-0.118706 0.361557 0.380462
-0.279752 0.244634 0.047575
-0.125207 0.409238 0.202818
-0.259679 0.306961 -0.008812
-0.045971 -0.076807 -0.176702
0.244760 -0.151578 0.009749
-0.109805 0.418454 0.190647
-0.019220 0.392978 0.252383
0.215946 0.021570 0.094116
-0.214784 0.141296 0.188414
0.051769 -0.295754 -0.008477
-0.046582 0.467703 0.129893
-0.320219 0.294093 -0.197650
-0.204566 0.188671 0.323651
-0.040603 0.082051 -0.041383
0.030121 -0.268378 -0.238441
-0.239013 0.219866 -0.210560
0.121842 0.106831 -0.076604
0.099567 -0.225803 -0.149620
0.085384 -0.221096 0.077703
-0.193855 -0.268663 0.067681
-0.126474 -0.114991 -0.093381
-0.012621 -0.318652 -0.000925
0.137641 -0.139155 -0.074323
-0.038337 0.140325 -0.116283
-0.279722 0.058204 0.291573
0.163938 -0.085924 0.077647
-0.233214 0.189522 -0.192186
-0.051184 0.199018 0.340470
0.107373 -0.231511 -0.150484
0.120134 0.107916 -0.249236
0.038509 0.111586 -0.160493
-0.172736 0.291080 0.377030
-0.246184 -0.083990 -0.016273
-0.229170 0.358541 -0.257724
-0.118604 0.074970 0.354725
-0.139275 -0.209356 -0.227906
-0.166509 0.297692 0.235828
-0.091939 0.069918 0.300826
