0.72167498 0.27153423 0.63731313 0.00000562 -0.00000447 -0.00000471
0.49228981 0.48295486 0.46980551 0.00001350 0.00001305 0.00000533
0.24491258 0.57658696 0.37777755 0.00000455 0.00000012 0.00002064
0.61415565 0.19816236 0.44101641 0.00000101 -0.00000667 -0.00000245
0.79565364 0.10597298 0.55867559 -0.00002897 -0.00001921 -0.00000379
0.68098509 0.42153418 0.55526245 -0.00001036 0.00001930 0.00000561
0.60894030 0.31432509 0.46508822 0.00000417 -0.00000166 -0.00000279
0.64930153 0.29219288 0.20406182 0.00002958 -0.00001291 -0.00004902
0.41204473 0.27615190 0.41793498 0.00000451 -0.00000417 -0.00001623
0.50117588 0.27295971 0.56482524 -0.00001103 -0.00000347 0.00000071
0.67779297 0.36701080 0.53101891 0.00000248 0.00000062 -0.00000276
0.68247586 0.39830965 0.59260672 -0.00001019 0.00002068 0.00000930
0.47146398 0.21834931 0.49512190 -0.00001850 -0.00001611 -0.00000345
0.76918429 0.21788217 0.51629692 0.00000299 0.00000234 -0.00001211
0.49154213 0.43811336 0.32446095 0.00000449 0.00000865 -0.00000898
0.62710404 0.35592294 0.50315154 0.00000160 0.00000500 -0.00000244
0.75981843 0.15140532 0.66849637 -0.00001414 -0.00000447 0.00001224
0.56639671 0.40263191 0.41400889 0.00000942 0.00000487 -0.00000291
0.29186887 0.60695601 0.35118565 -0.00000284 0.00001772 -0.00000155
0.41687191 0.56406325 0.44633248 -0.00000450 0.00001456 0.00001701
0.60001069 0.25201365 0.29750040 0.00000852 -0.00001320 -0.00000014
0.62448096 0.10138395 0.55897218 -0.00000358 -0.00002938 0.00001908
0.52370656 0.44792113 0.45112649 0.00000746 0.00001058 -0.00000179
0.64149749 0.16453809 0.39566535 -0.00000465 -0.00000465 0.00000109
0.47753918 0.56293315 0.40922293 0.00002291 0.00001266 0.00000094
0.58568943 0.11513159 0.46057704 -0.00002406 -0.00001126 -0.00000529
0.44589800 0.57459813 0.34255028 0.00000815 0.00000005 -0.00001805
0.66472203 0.37462029 0.54308569 0.00000146 -0.00000041 -0.00000216
0.69320077 0.23350640 0.55586016 -0.00000106 0.00000411 -0.00000395
0.59019601 0.16584451 0.44252890 -0.00000016 0.00000061 -0.00000324
0.91134351 0.14861616 0.70058411 0.00000118 0.00000181 0.00002222
0.89821422 0.21758218 0.53475034 0.00001317 0.00000173 -0.00001519
0.70911926 0.25002027 0.59823769 0.00000117 0.00000370 -0.00000286
0.71795267 0.46736959 0.50554454 0.00000515 0.00002753 0.00001888
0.75889677 0.27234143 0.47048444 0.00000832 0.00002633 -0.00002388
0.87305814 0.09871618 0.56732702 -0.00000515 -0.00003019 0.00000600
0.70460922 0.40696105 0.58595562 0.00000714 0.00002608 0.00001702
0.60777700 0.10215680 0.55327481 -0.00001403 -0.00003467 0.00001269
0.33650661 0.47737086 0.36794800 -0.00000950 0.00000165 0.00000770
0.44042620 0.31361067 0.31205523 -0.00001507 -0.00001460 -0.00002027
0.72556221 0.59129745 0.26550999 0.00000500 -0.00003442 -0.00001616
0.72886425 0.34575447 0.57540822 0.00000938 -0.00000182 -0.00000756
0.22708085 0.64228749 0.34858656 -0.00000202 0.00001711 0.00000001
0.73444253 0.42155021 0.48919436 0.00001782 -0.00000836 -0.00001290
0.49043497 0.46479222 0.39190185 0.00000196 0.00000783 -0.00000511
0.39804405 0.27465656 0.45532393 -0.00002187 -0.00001639 -0.00000433
0.79710782 0.21271606 0.51587558 0.00000143 -0.00000130 -0.00001781
0.19790021 0.67246538 0.39139462 0.00001745 0.00000746 0.00001022
0.29121855 0.74725240 0.38947222 0.00000079 0.00001997 0.00002539
0.65217775 0.26055971 0.83354813 -0.00000376 0.00000437 0.00003245
0.71482348 0.27698657 0.65062910 -0.00000294 0.00000594 -0.00000630
0.43698213 0.45440969 0.51012212 -0.00000265 0.00001065 0.00002074
0.41168979 0.26660627 0.49747133 -0.00001308 -0.00001267 0.00002097
0.59442097 0.19839366 0.66658431 0.00000066 -0.00001207 0.00000733
0.51240230 0.45548478 0.41915897 0.00000322 0.00001015 -0.00000545
0.33353084 0.74268061 0.33160323 -0.00000061 0.00002130 -0.00002628
0.57434624 0.30298418 0.35321796 0.00000266 0.00000113 -0.00000144
0.56278890 0.38326707 0.56010222 0.00000393 0.00001604 0.00000882
0.54153144 0.26458085 0.30162570 -0.00000234 -0.00001881 -0.00000389
0.66262782 0.19914705 0.40692270 -0.00000095 -0.00000588 0.00000408
0.58608329 0.30422306 0.43085480 0.00000426 -0.00000046 -0.00000277
0.20233466 0.62631518 0.38915509 -0.00003043 -0.00001658 0.00000355
0.31149247 0.50034237 0.36285976 -0.00000851 0.00000136 0.00001031
0.74701774 0.24810246 0.44630158 0.00001761 -0.00002970 -0.00001412
0.71947092 0.45893002 0.41700071 0.00000351 -0.00001024 -0.00001467
0.64299047 0.08773364 0.48833105 0.00001325 -0.00003863 -0.00000941
0.44987902 0.47038886 0.33463857 -0.00000007 -0.00000037 -0.00000666
0.17521150 0.70227349 0.39290714 0.00001872 0.00002344 -0.00003072
0.38279653 0.50222468 0.31921241 -0.00000574 0.00000089 -0.00001797
0.66323125 0.38889575 0.55771387 -0.00000463 0.00000044 -0.00000227
0.18950643 0.72186846 0.34283999 0.00001348 0.00001168 -0.00001392
0.63096488 0.09143647 0.54406238 0.00000107 -0.00004068 0.00000980
0.24661629 0.61878133 0.33498892 -0.00001173 -0.00000225 0.00000143
0.57697737 0.36174056 0.39603633 0.00000368 0.00000072 -0.00000233
0.35670385 0.39803258 0.40095395 -0.00001840 -0.00000080 -0.00000663
0.44574344 0.32668847 0.49565426 -0.00000440 -0.00000360 -0.00000242
0.39233866 0.45077899 0.31545347 0.00000122 0.00001324 -0.00000372
0.59894931 0.22297613 0.43013465 0.00000030 -0.00000097 -0.00000590
0.56586885 0.22026484 0.66535574 -0.00000940 0.00001263 0.00000124
0.66261071 0.23057070 0.81399775 -0.00000708 -0.00003915 0.00000714
0.69267410 0.42366269 0.56176591 -0.00000921 0.00002398 0.00001184
0.72852194 0.24861655 0.79837239 -0.00003592 0.00002379 -0.00001051
0.64206195 0.21750890 0.40434077 -0.00000251 -0.00000620 -0.00000736
0.69604373 0.25970671 0.47949764 -0.00000489 -0.00000013 0.00000041
0.66704518 0.33403918 0.50112492 0.00000730 0.00000360 -0.00000165
0.71611959 0.55677438 0.33272189 -0.00001294 0.00000375 -0.00000336
0.67600679 0.36173484 0.53966111 0.00000156 -0.00000009 -0.00000077
0.17776364 0.79240543 0.37609327 -0.00001419 0.00000036 0.00002591
0.64612889 0.11035707 0.44025844 0.00002174 -0.00001797 -0.00001217
0.34566978 0.48390293 0.42374456 -0.00001744 0.00000967 -0.00000575
0.38061303 0.30265218 0.41818804 -0.00002422 -0.00001381 -0.00000524
0.23038751 0.74817640 0.32911983 -0.00001293 -0.00000232 -0.00001940
0.41588035 0.37701556 0.31622291 -0.00000315 0.00000843 -0.00000974
0.70211434 0.27207121 0.43989778 -0.00000106 0.00001210 0.00000250
0.28629169 0.55931395 0.33979782 -0.00001134 0.00000353 -0.00000561
0.30790529 0.71887666 0.39277202 -0.00000385 0.00000148 0.00002830
0.77166545 0.23414643 0.63336307 0.00000145 0.00000236 -0.00000160
0.64895004 0.16153027 0.46912423 0.00000086 0.00000451 -0.00000365
0.72396946 0.56975377 0.35189667 -0.00002095 0.00002036 -0.00000131
0.88712513 0.27515689 0.62097102 0.00001323 -0.00001824 0.00000869
0.75015032 0.24254593 0.54319906 -0.00000515 0.00000376 -0.00000034
0.55863380 0.40069580 0.52382964 0.00000808 0.00001543 0.00000063
0.86442161 0.12679653 0.53833407 -0.00000087 -0.00000526 -0.00000199
0.42430848 0.44954014 0.21367727 -0.00001365 0.00002037 -0.00000299
0.63472039 0.24977754 0.80698484 -0.00000900 0.00000962 -0.00000217
0.59045821 0.16612388 0.42809314 -0.00000113 0.00000072 -0.00000477
0.69200885 0.21973473 0.72304040 0.00000720 0.00000309 0.00000008
0.73240787 0.40797663 0.50078833 0.00001693 -0.00000683 -0.00001329
0.65673125 0.23461244 0.68157417 -0.00000690 0.00000256 -0.00000226
0.72419965 0.23756416 0.58594531 0.00000002 0.00000247 -0.00000230
0.68061644 0.22445314 0.52330071 0.00000039 0.00000110 -0.00000227
0.62589270 0.32634729 0.64901012 -0.00000508 0.00000846 0.00001540
0.23991020 0.72335923 0.34119582 -0.00000859 -0.00000179 -0.00000261
0.55992764 0.19038004 0.63174862 -0.00000030 -0.00001483 0.00000452
0.89406025 0.11897752 0.58314353 -0.00000312 -0.00001788 0.00000458
0.70590878 0.26432666 0.48778036 -0.00000225 0.00000331 -0.00000225
0.83049279 0.08444872 0.57736492 -0.00000886 -0.00001918 0.00000285
0.24787118 0.56968963 0.33200398 0.00000800 -0.00000154 -0.00002989
0.47305664 0.23789163 0.42187366 0.00000188 0.00000531 -0.00000416
0.75240940 0.55248648 0.34630123 0.00003713 0.00000598 0.00000189
0.34344625 0.47990352 0.43102998 -0.00002209 0.00000812 -0.00000261
0.69602883 0.23795575 0.55994195 -0.00000011 0.00000215 -0.00000411
0.53266484 0.17281851 0.48873067 -0.00000151 -0.00001464 -0.00001259
0.46160007 0.24598196 0.50819743 -0.00000157 0.00000640 -0.00000229
0.35126182 0.44343859 0.39714468 -0.00000879 0.00000294 -0.00000614
0.89345002 0.13687338 0.57871485 -0.00000764 0.00000950 -0.00000016
0.84876984 0.09623617 0.67104506 0.00000155 -0.00003210 -0.00000319
0.37838265 0.33008218 0.36767203 -0.00001543 -0.00001156 0.00000994
0.45878920 0.31352937 0.50372171 -0.00000431 0.00000027 -0.00000084
0.53893465 0.30536002 0.23945050 -0.00001074 -0.00001536 -0.00000933
0.38780001 0.39836919 0.49342275 -0.00001634 -0.00001244 0.00001306
0.62239134 0.36636963 0.54632258 0.00000939 0.00000471 -0.00000284
0.21959962 0.73881060 0.34597147 -0.00000733 0.00000361 -0.00000493
0.69947410 0.24229403 0.66168040 0.00000143 0.00000096 0.00000156
0.45658511 0.46809548 0.50508195 0.00000037 0.00001308 0.00002112
0.84968477 0.24854898 0.55741155 0.00000787 0.00001688 -0.00001269
0.84696656 0.18599251 0.69196707 0.00000416 -0.00000013 0.00000414
0.35537910 0.44344661 0.33498207 -0.00000956 -0.00001430 -0.00001139
0.54055822 0.28761300 0.61677015 -0.00001352 0.00000074 0.00001769
0.10771450 0.81934422 0.33146471 -0.00001045 -0.00001481 -0.00001756
0.76260757 0.23807138 0.52471703 -0.00000129 0.00000360 -0.00000169
0.32934710 0.46006355 0.33715522 -0.00001579 -0.00000400 -0.00000867
0.62813342 0.35274452 0.25140396 0.00001144 0.00000793 0.00001127
0.91883165 0.20356433 0.62032181 0.00000529 0.00001608 -0.00000089
0.55137932 0.38950026 0.35523999 -0.00000195 -0.00000084 0.00000162
0.23814926 0.62665981 0.37187406 -0.00000766 0.00001468 -0.00000172
0.62569922 0.08934349 0.47324842 -0.00000096 -0.00004217 -0.00000869
0.46471211 0.56251186 0.43672508 0.00001759 0.00001923 0.00001332
0.74281913 0.50291055 0.42865419 0.00002768 0.00001639 0.00000487
0.47309098 0.24712808 0.53409201 -0.00001829 -0.00000707 0.00000981
0.65040529 0.09711435 0.55298167 0.00000785 -0.00003353 0.00001094
0.39577013 0.43139124 0.28901160 0.00000152 0.00000823 0.00000808
0.36466247 0.57899022 0.33926880 -0.00000611 0.00000449 -0.00000519
0.48460820 0.45566797 0.37412164 -0.00000065 0.00000470 -0.00000362
0.83595884 0.09863718 0.66683960 0.00000209 -0.00001426 0.00001550
0.68570697 0.23235571 0.54828960 0.00000201 0.00000454 -0.00000180
0.41866720 0.59901685 0.42631617 -0.00000120 0.00001848 0.00001746
0.74166727 0.50288993 0.38036975 0.00001481 -0.00001555 -0.00002134
0.69688183 0.39883637 0.59740186 0.00000387 0.00002465 0.00001746
0.38724929 0.39854783 0.34423912 -0.00000435 0.00000596 -0.00001310
0.21814094 0.76484263 0.38445726 -0.00001302 -0.00000490 0.00002311
0.67137200 0.19175744 0.38040981 0.00001698 -0.00001317 0.00000280
0.84196305 0.09338979 0.66280472 0.00000034 -0.00002154 0.00002762
0.75845486 0.12649424 0.62261063 0.00000563 -0.00002310 0.00000164
0.72808111 0.41985568 0.55128598 0.00002843 0.00001705 0.00000833
0.57709181 0.25288385 0.28393137 -0.00000095 -0.00002113 -0.00000201
0.69742686 0.38346288 0.50477624 0.00000120 -0.00000282 -0.00000588
0.41001582 0.54780930 0.45369351 -0.00000497 0.00001474 0.00001481
0.56066501 0.21562429 0.66937459 -0.00001490 0.00001450 0.00000363
0.34408858 0.62414891 0.36713049 -0.00000851 0.00000931 -0.00000798
0.57842916 0.19355963 0.64375818 0.00000234 -0.00001401 -0.00000090
0.65802395 0.27901316 0.29028821 0.00001191 -0.00000524 0.00000626
0.52083039 0.41705739 0.33272418 -0.00000332 -0.00000597 -0.00000689
0.22419666 0.80836511 0.36250708 0.00000547 0.00003966 0.00001219
0.70352608 0.37541372 0.62522805 0.00000848 0.00002490 0.00001865
0.43331936 0.60033131 0.32899615 0.00000799 -0.00000181 -0.00002251
0.39176160 0.28206107 0.49642599 0.00000523 0.00003503 0.00003725
0.24912034 0.72184783 0.32992703 -0.00001194 -0.00000690 -0.00001174
0.73347729 0.42525765 0.48217687 0.00001254 -0.00001081 -0.00001853
0.57790595 0.38314000 0.47047186 0.00000585 0.00000441 0.00000005
0.38234767 0.69793063 0.36907232 0.00000238 0.00001052 0.00002132
0.43474942 0.38907093 0.30895123 0.00000412 0.00000459 0.00000183
0.52491450 0.42880476 0.38166243 -0.00000141 0.00000263 -0.00000134
0.87211114 0.14196964 0.52360868 0.00001741 -0.00000353 -0.00000754
0.08523531 0.86646426 0.34537950 -0.00002348 0.00001008 0.00002048
0.42246506 0.31531319 0.48047429 -0.00000423 0.00000021 0.00000017
0.75133657 0.22924140 0.60926259 -0.00000170 0.00000208 -0.00000010
0.07190333 0.91774279 0.27172488 0.00001357 0.00001417 -0.00000279
0.10604054 0.85840136 0.35281265 -0.00000290 0.00002927 0.00001758
0.63375974 0.32846889 0.21689463 0.00001620 0.00001667 -0.00002706
0.49006513 0.19933940 0.51163459 -0.00001062 -0.00002400 -0.00000805
0.06235314 0.87033993 0.29816791 -0.00003010 -0.00001128 -0.00001056
0.51315796 0.39184177 0.27730772 0.00000345 0.00000861 0.00000269
0.25368533 0.71136338 0.33725253 -0.00001253 -0.00000413 0.00000302
0.53241634 0.27599272 0.27398044 -0.00001187 -0.00001871 -0.00001339
0.36586469 0.37965816 0.36637938 -0.00002103 0.00000305 -0.00001659
0.58153093 0.17594314 0.36714879 -0.00000963 0.00000484 -0.00000380
0.59268409 0.12207583 0.35491252 -0.00002509 -0.00003735 -0.00001483
0.54079980 0.31511971 0.61134416 -0.00001009 0.00000883 0.00001919
0.47606790 0.26719937 0.40181041 0.00000250 -0.00000341 -0.00000223
0.54864401 0.34879440 0.22024366 -0.00000136 0.00001329 -0.00003289
0.44065061 0.40159228 0.30671051 0.00000215 0.00000143 0.00000166
0.36212069 0.50512260 0.32814088 -0.00000496 -0.00000075 -0.00000433
0.50560123 0.37503704 0.56032896 -0.00000787 0.00001366 0.00001626
0.72359622 0.43467042 0.45195544 0.00000697 -0.00001078 -0.00000966
0.49265733 0.24980389 0.39997616 0.00000592 -0.00000482 -0.00002081
0.82484806 0.21421026 0.52579784 0.00001696 0.00000646 -0.00001084
0.56192333 0.35235178 0.59788847 -0.00000529 0.00001449 0.00001204
0.33977434 0.66030127 0.31930858 -0.00001517 -0.00000451 -0.00000590
0.84719324 0.25420284 0.56550646 0.00000622 0.00001669 -0.00000838
0.65083128 0.14627586 0.42447388 0.00001164 0.00000690 -0.00000654
0.37191132 0.40510622 0.36202163 -0.00000992 0.00000561 -0.00001126
0.50630534 0.34664413 0.57689434 -0.00001105 0.00001065 0.00001961
0.65633166 0.14889897 0.46028739 0.00000576 0.00000682 -0.00000305
0.58832061 0.11950421 0.38689604 -0.00002695 -0.00002360 -0.00001295
0.72775817 0.34632355 0.57251716 0.00000779 -0.00000295 -0.00000805
0.54881001 0.26716846 0.62260950 -0.00001142 -0.00000650 0.00001416
0.43231523 0.39556748 0.30670023 0.00000526 0.00000223 0.00000288
0.44048685 0.62192881 0.40429270 0.00001361 0.00002190 0.00002010
0.46592808 0.28822556 0.51513934 0.00000236 0.00000825 -0.00000435
0.55348146 0.41013604 0.37416056 0.00000137 -0.00000449 -0.00001193
0.36089095 0.70636904 0.31141174 0.00000170 0.00001618 -0.00002912
0.45886475 0.44237718 0.31613588 -0.00000014 -0.00000664 -0.00001227
0.71254617 0.15099427 0.62396282 -0.00000212 -0.00001402 0.00001015
0.35618743 0.55379635 0.41708428 -0.00001800 0.00000717 0.00000159
0.43013522 0.39367712 0.30553234 0.00000165 0.00000209 0.00000235
0.42884824 0.64469421 0.39046949 0.00000918 0.00002448 0.00001782
0.07811476 0.90968215 0.30909663 0.00003145 0.00003026 -0.00000042
0.65934747 0.31349158 0.22247177 0.00002922 0.00001648 -0.00002126
0.72571784 0.43304572 0.45737344 0.00001077 -0.00000936 -0.00000836
0.58410704 0.26763102 0.24265642 -0.00000218 -0.00000880 -0.00002262
0.51067340 0.35325745 0.57583755 -0.00000981 0.00001296 0.00001727
0.65554738 0.20831481 0.75494832 0.00000335 -0.00002155 0.00000520
0.69481176 0.45778391 0.42256525 -0.00000299 -0.00000456 -0.00001090
0.35284758 0.45679349 0.39211139 -0.00000474 0.00000115 0.00000076
0.20499554 0.79730469 0.37753364 -0.00000973 0.00001851 0.00002851
0.79356867 0.23925643 0.65452665 0.00000216 -0.00000163 -0.00000047
0.57212842 0.16126920 0.59340250 -0.00000926 -0.00001391 0.00001447
0.64665669 0.20078780 0.40574107 -0.00000586 -0.00000164 -0.00000532
0.72412753 0.29844096 0.62609363 0.00000765 -0.00000129 -0.00000299
0.59559453 0.37658277 0.56315815 0.00000710 0.00001465 0.00000045
0.49956951 0.28425941 0.30241001 -0.00000745 -0.00001838 -0.00000891
0.63166791 0.34699678 0.63832986 -0.00000563 0.00001696 0.00001590
0.50629389 0.18597992 0.52393043 -0.00000933 -0.00001365 -0.00000795
0.18570857 0.80646449 0.32883129 -0.00000508 0.00000977 -0.00002795
0.39830396 0.41503194 0.20193334 -0.00003976 0.00001903 -0.00000849
0.56539601 0.18778555 0.46393982 0.00000883 -0.00000605 -0.00000964
0.68140417 0.26934847 0.71354401 -0.00000168 -0.00000221 -0.00000094
0.58506542 0.25228044 0.29554135 0.00000189 -0.00001606 0.00000111
0.73932928 0.58667636 0.28739372 0.00002518 0.00000341 -0.00001958
0.39219895 0.49255541 0.48821542 -0.00000811 0.00001816 0.00002080
0.65320128 0.11880121 0.44331551 0.00002426 -0.00000441 -0.00001076
0.34966111 0.49864548 0.44542453 -0.00002304 0.00001330 -0.00000763
0.54932755 0.14428020 0.51289636 -0.00001745 -0.00002024 -0.00000673
0.30959755 0.53389221 0.36439741 -0.00000161 0.00000035 0.00000572
0.24237305 0.55757475 0.34398377 -0.00004135 -0.00001072 -0.00000933
0.69989425 0.15175341 0.62337428 -0.00000183 -0.00001392 0.00001194
0.93563521 0.13815691 0.69694430 0.00002321 -0.00005236 0.00004456
0.75858414 0.25112173 0.56378788 -0.00000637 0.00000477 0.00000057
0.57567096 0.35148391 0.37940684 -0.00000305 -0.00000135 -0.00000959
0.49105439 0.37687016 0.55278248 -0.00000858 0.00001327 0.00001683
0.91513222 0.22058199 0.64544249 0.00001970 0.00000376 0.00000329
0.57600987 0.29456872 0.64389330 -0.00001184 0.00000395 0.00002051
0.62123036 0.20237471 0.66990238 -0.00000051 -0.00000646 0.00000286
0.66719860 0.40654430 0.50149018 -0.00000217 0.00000038 -0.00000579
0.91790992 0.21419194 0.61112547 -0.00000058 0.00000941 -0.00000066
0.67797160 0.37725943 0.62298387 -0.00000334 0.00002474 0.00001286
0.85428286 0.14066322 0.71134108 0.00001495 -0.00001324 0.00004170
0.61356944 0.09032127 0.50893939 -0.00000952 -0.00003714 -0.00000437
0.71897173 0.23955525 0.60794479 0.00000105 0.00000326 -0.00000181
0.38038519 0.62360620 0.31214225 -0.00000810 -0.00000229 -0.00002133
0.38651192 0.31736958 0.39801940 -0.00001065 -0.00000414 0.00000309
0.67123568 0.26015210 0.67671150 -0.00000122 0.00000277 0.00000068
0.59105819 0.10415936 0.48226503 -0.00002107 -0.00002590 -0.00000592
0.72661555 0.24834405 0.81136662 0.00003360 0.00000098 0.00000075
0.64284050 0.16295119 0.33629763 0.00002204 -0.00001031 -0.00003283
0.60619122 0.25766867 0.30863062 0.00000503 -0.00000602 0.00000491
0.67760974 0.18117107 0.51709151 0.00000367 -0.00000215 -0.00000328
0.84219426 0.08817904 0.62122864 -0.00002003 0.00001011 0.00001997
0.88297009 0.28376248 0.59343797 -0.00001748 0.00002809 -0.00002623
0.41516820 0.65411615 0.38743648 0.00000258 0.00002155 0.00001758
0.68696642 0.28180000 0.77838129 -0.00000657 0.00001222 0.00000100
0.23743251 0.78093392 0.38140249 0.00000019 0.00001397 0.00002725
0.30330938 0.74428016 0.32830459 0.00000274 0.00001342 -0.00001785
0.58767593 0.10570393 0.50056738 -0.00001763 -0.00002774 -0.00000683
0.60055113 0.32390392 0.45284393 0.00000519 -0.00000213 -0.00000317
0.55425662 0.39603007 0.31706443 0.00000508 0.00001070 -0.00000071
0.88841319 0.15936512 0.71232569 0.00000632 0.00001257 0.00004123
0.44151160 0.39614224 0.52269727 -0.00000868 0.00000357 0.00001747
0.89439797 0.19132920 0.70400298 -0.00003419 -0.00000148 0.00000999
0.21680248 0.78337848 0.38215819 -0.00000356 0.00001560 0.00002816
0.36261758 0.54383624 0.43490571 -0.00002097 0.00001067 0.00000954
0.72390199 0.22695147 0.62924570 0.00000185 0.00000451 -0.00000437
0.61606085 0.24612395 0.26655304 0.00000103 -0.00002482 -0.00000700
0.48167822 0.51305604 0.44867739 0.00001485 0.00000829 0.00000519
0.67843980 0.11893862 0.49882355 0.00002148 -0.00000150 -0.00000892
0.63049316 0.22601029 0.42503148 0.00000188 -0.00000236 -0.00000396
0.74339050 0.44961569 0.47524408 0.00002923 -0.00000427 -0.00000395
0.44859326 0.34260699 0.51677781 -0.00000899 -0.00000841 0.00000374
0.85411346 0.09686017 0.56066900 0.00000387 -0.00001526 0.00000456
0.56187296 0.20397995 0.70679551 -0.00002924 -0.00002082 0.00003143
0.31440070 0.76144892 0.37106916 0.00000695 0.00003036 0.00002499
0.65241700 0.21432705 0.41725260 -0.00000245 -0.00000172 -0.00000178
0.65906012 0.35454443 0.57565665 0.00000829 0.00000342 -0.00000893
0.38769469 0.32188076 0.35864970 -0.00002511 -0.00001739 -0.00001399
0.57792997 0.13868588 0.39371547 -0.00002424 -0.00000289 -0.00000247
0.36267483 0.36954233 0.42337361 -0.00002199 -0.00001034 -0.00000106
0.66693872 0.32043010 0.48988593 0.00000888 0.00000004 -0.00000302
0.71561581 0.32763082 0.65592581 0.00002223 0.00000620 0.00002043
0.43971857 0.44769216 0.51276582 -0.00000358 0.00001173 0.00002013
0.37351197 0.54169518 0.34486198 -0.00000347 -0.00000190 -0.00000245
0.58284414 0.16897258 0.34420136 -0.00001770 0.00000488 -0.00001517
0.72567666 0.24021249 0.74078393 0.00001400 -0.00000416 0.00000010
0.67994779 0.45265672 0.44369790 -0.00000617 0.00000399 -0.00000705
0.63155568 0.20171066 0.65424722 0.00000239 -0.00000300 -0.00000108
0.68627715 0.40768009 0.58137923 -0.00000797 0.00002272 0.00001077
0.71831685 0.30337462 0.64994901 0.00001361 -0.00000210 0.00000532
0.82816273 0.09078841 0.65233511 -0.00000081 -0.00003878 0.00000656
0.46050093 0.52450347 0.36417416 0.00000856 0.00000448 -0.00000859
0.65331584 0.24756661 0.24253504 0.00001157 -0.00004353 -0.00000917
0.39747271 0.71129018 0.32201758 0.00002234 0.00004117 -0.00002553
0.38083288 0.39006132 0.48034719 -0.00001837 -0.00001353 0.00000740
0.71470100 0.27273759 0.72734660 0.00000886 0.00000161 -0.00001017
0.21001625 0.81492001 0.36084116 0.00000462 0.00003965 0.00001070
0.72760594 0.21514913 0.64270258 0.00000312 0.00000455 -0.00000001
0.27472755 0.53283310 0.36595345 -0.00000112 0.00000046 0.00001826
0.38165498 0.59177840 0.32422510 -0.00000425 -0.00000186 -0.00001641
0.72399473 0.21070780 0.55103755 -0.00000109 0.00000285 -0.00000228
0.78115147 0.23836221 0.62262434 0.00000045 0.00000134 0.00000024
0.89404303 0.12272958 0.59289986 -0.00000578 -0.00000199 0.00000227
0.46559486 0.22777814 0.45062611 -0.00000420 -0.00001570 -0.00001170
0.17887884 0.79939198 0.32896754 -0.00001052 0.00000638 -0.00002712
0.36563915 0.65668201 0.30437592 -0.00001020 -0.00000291 -0.00002614
0.82204294 0.08695050 0.56896430 0.00002406 -0.00002394 -0.00002353
0.45662174 0.61869085 0.37749472 0.00002362 0.00001772 0.00000294
0.85137582 0.21682307 0.70327365 0.00000751 0.00001986 0.00004181
0.60359216 0.35785335 0.26658282 0.00000270 -0.00000638 -0.00000393
0.48840722 0.46579295 0.49457115 0.00001243 0.00001345 0.00001236
0.43628713 0.36396289 0.29983842 -0.00000329 0.00000723 -0.00001131
0.22296812 0.62259173 0.33747923 -0.00000724 -0.00000793 -0.00000891
0.62866694 0.20412879 0.68748796 -0.00000064 -0.00001205 0.00000353
0.30932620 0.71520817 0.31460965 0.00000211 0.00001280 -0.00002627
0.56849658 0.37934327 0.26827392 0.00000412 0.00001392 0.00000089
0.37207845 0.56516814 0.43408018 -0.00001404 0.00001353 0.00001816
0.66815346 0.41502392 0.54317504 -0.00001190 0.00001031 0.00000044
0.35354486 0.54893935 0.33373976 -0.00000175 0.00000667 -0.00000464
0.86238360 0.09996077 0.68174821 0.00000582 -0.00003408 0.00003825
0.66725236 0.41553226 0.49722746 -0.00000411 0.00000186 -0.00000471
0.44224900 0.64833635 0.36534089 0.00002409 0.00002290 0.00000077
0.94933242 0.17593399 0.65448308 0.00003627 0.00002678 -0.00002642
0.19602816 0.74208629 0.37546471 -0.00000171 -0.00000220 0.00001254
0.75270706 0.55110562 0.33714375 0.00003817 -0.00000489 -0.00000969
0.68256289 0.25019544 0.54030800 0.00000155 0.00000012 -0.00000244
0.74920809 0.27300093 0.48712540 0.00000991 0.00000789 -0.00001195
0.42065600 0.39197111 0.25696507 -0.00000865 -0.00001224 -0.00001279
0.72899586 0.50831360 0.36742929 -0.00000459 -0.00001011 -0.00001967
0.34658003 0.53994107 0.38923982 -0.00000871 0.00000141 0.00000218
0.72108537 0.58434641 0.27245879 0.00000849 0.00000535 0.00000030
0.49941492 0.45021677 0.38119411 0.00000359 0.00000455 -0.00000580
0.60767162 0.37274483 0.57867360 0.00000521 0.00001825 0.00000018
0.65471840 0.23829237 0.38302836 -0.00000469 0.00000848 -0.00000405
0.64917219 0.14942682 0.42167330 0.00000788 0.00000941 -0.00000699
0.16410531 0.69949013 0.39430857 -0.00003052 0.00002415 0.00004895
0.44000828 0.46191838 0.31902578 0.00000908 0.00000522 -0.00000918
0.49148259 0.40992308 0.52863508 -0.00000083 0.00000860 0.00001229
0.34390196 0.52676135 0.38119867 -0.00000877 0.00000258 -0.00000256
0.60208768 0.31392783 0.64634812 -0.00000361 0.00000900 0.00001594
0.63547724 0.27048087 0.82825041 0.00003070 -0.00000205 0.00003390
0.19862610 0.78180295 0.38072926 -0.00001292 0.00000875 0.00002788
0.39110214 0.29559574 0.40512165 -0.00000747 -0.00000913 -0.00002166
0.51721686 0.20546156 0.45445490 0.00000692 -0.00000055 -0.00000392
0.36522013 0.35647139 0.37223589 -0.00003058 -0.00000569 -0.00001119
0.71986252 0.23963313 0.64133084 0.00000400 0.00000189 -0.00000573
0.59263939 0.34412977 0.22343241 0.00000644 0.00001551 -0.00001520
0.71089286 0.25952122 0.82842892 0.00002899 0.00000190 0.00004917
0.44159174 0.44846156 0.21983834 0.00001096 0.00001678 -0.00000336
0.62157500 0.20633517 0.71094489 -0.00000644 -0.00001350 0.00000483
0.47582057 0.44673380 0.51273721 0.00000315 0.00001267 0.00001893
0.68585467 0.41716957 0.46589541 -0.00000097 -0.00000240 -0.00000829
0.25777975 0.61897480 0.34816062 -0.00000284 0.00001172 0.00000503
0.37319708 0.51845348 0.45960841 -0.00001189 0.00001595 0.00001321
0.47260666 0.37439585 0.24780647 -0.00001341 -0.00000550 -0.00001926
0.73494172 0.36843175 0.56784111 0.00002001 -0.00000294 -0.00000540
0.63978225 0.35102481 0.26357728 0.00001360 0.00001811 -0.00001232
0.74877644 0.57177007 0.32283852 0.00003539 0.00001554 -0.00000277
0.92152685 0.23115921 0.55611205 0.00004764 0.00000907 -0.00000218
0.25327083 0.70955890 0.34546080 -0.00000878 -0.00000067 0.00000045
0.31206608 0.52949780 0.36445811 -0.00000678 0.00000469 0.00000455
0.68375939 0.12510313 0.57002223 0.00001014 -0.00001687 -0.00000580
0.27729571 0.60045266 0.32865727 -0.00001642 0.00000328 -0.00000458
0.81540096 0.26009485 0.61289448 0.00000078 -0.00000135 0.00000013
0.43530816 0.45921281 0.19746225 -0.00000801 0.00003911 -0.00000331
0.93105644 0.13024518 0.65779668 -0.00000105 0.00003485 0.00003046
0.86947203 0.11129135 0.62901562 0.00000385 0.00000074 -0.00000147
0.57527936 0.38855338 0.30471712 0.00000567 0.00001635 0.00000006
0.52469581 0.29341453 0.26239911 -0.00000767 -0.00000729 -0.00002383
0.40108967 0.32396689 0.33622319 -0.00002094 -0.00001798 -0.00002261
0.79023910 0.10764005 0.65305650 -0.00001536 -0.00002489 0.00001125
0.36049139 0.44607088 0.37442622 -0.00000510 0.00000364 -0.00000653
0.60193765 0.20404752 0.67845076 -0.00000625 0.00000590 0.00001355
0.42722699 0.36814433 0.51151210 -0.00001442 -0.00000370 0.00001200
0.91747940 0.24306917 0.63359892 0.00004196 0.00000871 0.00001306
0.23996404 0.79250383 0.37462202 0.00000315 0.00002594 0.00002736
0.39238334 0.46384418 0.32448384 0.00000210 0.00000286 -0.00000341
0.86433345 0.12238153 0.55202222 -0.00000925 0.00000070 -0.00000205
0.91427809 0.11772266 0.68226582 0.00001924 -0.00000232 0.00004629
0.42964748 0.57104987 0.33527744 0.00000400 -0.00000176 -0.00001612
0.35412881 0.51391822 0.41758806 -0.00001316 -0.00000234 -0.00000386
0.41609102 0.39168260 0.28459200 -0.00000958 -0.00000361 -0.00000276
0.66058981 0.15930673 0.62539291 -0.00000116 -0.00001055 0.00001439
0.70890975 0.37896430 0.51122129 0.00000202 -0.00000423 -0.00000851
0.66277897 0.09312302 0.50007731 0.00002017 -0.00003063 -0.00001344
0.71869582 0.22539774 0.64852697 0.00000525 0.00000199 0.00000067
0.34930277 0.55394286 0.39558524 -0.00001026 0.00000248 0.00000050
0.52551562 0.22866662 0.43158185 0.00000285 -0.00000417 -0.00001164
0.68046188 0.11624105 0.54252356 0.00001836 -0.00000566 -0.00000592
0.43488339 0.30664125 0.32697070 -0.00001034 -0.00001966 -0.00001354
0.66618526 0.37421268 0.53835815 0.00000159 0.00000032 -0.00000164
0.75962609 0.19417673 0.52115732 -0.00000625 -0.00000492 -0.00001387
0.56895226 0.39926803 0.41725603 0.00000953 0.00000401 -0.00000442
0.55337840 0.21340419 0.62735081 -0.00000810 0.00000037 0.00000552
0.71727830 0.53607911 0.40870541 -0.00001414 0.00002512 0.00000886
0.82101470 0.27616218 0.61558509 -0.00000282 -0.00000033 -0.00000401
0.46538076 0.45037135 0.32428119 0.00000543 0.00000447 -0.00000919
0.53659666 0.27146897 0.61132586 -0.00001563 -0.00000406 0.00001135
0.64892715 0.28665355 0.30170813 0.00001139 -0.00000412 0.00000249
0.18145730 0.72218567 0.37801111 0.00000479 0.00001018 0.00000753
0.62785864 0.26070970 0.69554740 0.00000091 0.00000271 -0.00000047
0.54587430 0.19226006 0.62255681 -0.00001732 0.00000346 -0.00001127
0.20778012 0.75184721 0.33883259 -0.00001043 -0.00000477 -0.00000400
0.92659563 0.19569728 0.53977907 0.00003532 0.00003404 -0.00005663
0.65970474 0.22906736 0.81231701 0.00000966 -0.00002714 0.00002160
0.62838870 0.32178572 0.32198668 0.00000885 -0.00000020 0.00000337
0.72774673 0.58842248 0.25873062 -0.00002068 -0.00000440 -0.00001999
0.45384061 0.41880918 0.22306830 0.00001273 0.00000075 -0.00001553
0.59152991 0.37184486 0.50086391 0.00000706 0.00000176 -0.00000576
0.51112914 0.35365933 0.23120102 -0.00001011 0.00000598 -0.00003227
0.84409040 0.15106870 0.51830405 -0.00001549 -0.00001101 -0.00002297
0.83152670 0.10053781 0.66836923 0.00000464 -0.00001472 0.00000632
0.27882770 0.70225978 0.32251564 -0.00001340 -0.00000994 -0.00001338
0.50729918 0.18409532 0.49571496 0.00000256 -0.00002022 -0.00001417
0.35002065 0.73421013 0.32719970 0.00000266 0.00003225 -0.00002591
0.35831824 0.37892079 0.41505542 -0.00002639 -0.00000255 -0.00000048
0.62847918 0.27366501 0.71496034 0.00000127 0.00000665 0.00000939
0.53906292 0.17363258 0.56832427 -0.00001897 -0.00001164 0.00000948
0.56870842 0.21085435 0.72907096 -0.00002972 0.00000042 0.00001368
0.46468577 0.48016116 0.36255518 0.00000401 0.00000192 -0.00000439
0.66595399 0.20920330 0.49099427 0.00000160 -0.00000034 -0.00000421
0.65436918 0.22166744 0.79470050 -0.00002086 -0.00001751 0.00001301
0.48033863 0.28865606 0.32113826 -0.00000351 -0.00001718 -0.00000807
0.56482583 0.38173854 0.37549219 0.00000237 0.00000062 -0.00000299
0.87802380 0.24813223 0.57053405 0.00000923 0.00001396 -0.00000895
0.56531358 0.19470230 0.46016601 0.00000769 -0.00000367 -0.00000968
0.38882360 0.31350416 0.40450794 -0.00000766 -0.00000416 0.00000485
0.57717657 0.36691692 0.33727655 0.00000411 0.00000109 0.00000203
0.63917202 0.24630371 0.68273860 0.00000160 0.00000207 -0.00000047
0.65409899 0.27639690 0.21314944 0.00002579 -0.00001425 -0.00003736
0.45963532 0.26204702 0.52875072 -0.00001511 -0.00000358 0.00001420
0.48772711 0.48674127 0.40818217 0.00000796 0.00000220 -0.00000531
0.66986859 0.25023782 0.67841864 0.00000021 -0.00000332 0.00000142
0.70123845 0.24326268 0.56828761 -0.00000085 0.00000424 -0.00000214
0.58448493 0.12339481 0.39680690 -0.00002921 -0.00001361 -0.00000512
0.78267890 0.20564817 0.69083929 -0.00000579 0.00000921 0.00000768
0.28819123 0.77085942 0.33670178 0.00000091 0.00002011 -0.00003085
0.31243366 0.67495114 0.33005065 -0.00000701 -0.00000808 -0.00000158
0.41600287 0.41670129 0.32486397 0.00000184 -0.00000109 -0.00000233
0.63620770 0.26962328 0.72447038 -0.00000449 -0.00000384 0.00000175
0.46161953 0.45494896 0.32724091 0.00000323 0.00000684 -0.00000380
0.35901210 0.37693655 0.40252143 -0.00002513 -0.00000184 0.00000367
0.70587671 0.23603106 0.44453490 -0.00000182 -0.00000948 -0.00000555
0.43228659 0.46417394 0.50587654 -0.00000485 0.00001224 0.00001973
0.35103622 0.48745918 0.47041461 -0.00003399 0.00001689 0.00001909
0.89098948 0.11749595 0.69549358 0.00002050 -0.00002303 0.00004672
0.93404484 0.19369929 0.57591653 0.00003428 0.00001763 -0.00003102
0.80776173 0.15179347 0.69836283 -0.00001126 -0.00000678 0.00000712
0.37634692 0.30740723 0.41949558 -0.00002513 -0.00001991 -0.00000144
0.61385566 0.15234192 0.32245037 0.00000345 0.00000717 -0.00004339
0.44841462 0.25750494 0.51116401 -0.00000622 -0.00000811 0.00001236
0.27235174 0.51815230 0.33416000 -0.00003033 -0.00002200 -0.00003065
0.52858871 0.27308106 0.60396367 -0.00001457 -0.00000497 0.00001357
0.63196445 0.08498571 0.51193231 -0.00000440 -0.00004304 -0.00000383
0.51468080 0.18857557 0.47638333 -0.00000972 -0.00000467 -0.00000791
0.06105017 0.89867789 0.31780753 -0.00004391 0.00001317 0.00002345
0.72583812 0.32167810 0.64070570 0.00002014 -0.00000100 0.00000531
0.58134544 0.12892729 0.39539284 -0.00002775 -0.00000964 -0.00000345
0.64577854 0.27794489 0.66858000 0.00000206 -0.00000032 0.00000599
0.38550436 0.42095026 0.34893006 -0.00000015 0.00000132 -0.00000365
0.73144615 0.49603155 0.38078192 0.00000409 -0.00000965 -0.00002264
0.71669894 0.23469716 0.72855222 0.00000855 -0.00000444 -0.00000415
0.40974331 0.25775224 0.47629058 -0.00002315 -0.00002027 -0.00000360
0.24665980 0.72006398 0.37425444 -0.00001028 -0.00000337 0.00000509
0.39818487 0.45057288 0.50556856 -0.00000928 0.00001083 0.00002603
0.59192371 0.19927756 0.44769502 0.00000157 -0.00000427 -0.00000471
0.42710677 0.43012488 0.28739834 0.00000306 0.00000443 -0.00000301
0.28211373 0.55044270 0.33639723 -0.00000904 0.00001814 0.00001147
0.41701728 0.43551883 0.31052327 0.00000255 -0.00000401 -0.00000726
0.55794227 0.14427330 0.56190670 -0.00002145 -0.00002092 0.00000849
0.68206716 0.29711625 0.53852648 0.00000323 0.00000203 -0.00000228
0.58565623 0.27930743 0.22309235 -0.00000819 -0.00002848 -0.00001288
0.71736073 0.55328226 0.37132677 -0.00001836 0.00002034 -0.00000150
0.64472854 0.25577030 0.78886569 0.00000070 0.00001087 -0.00000517
0.69397020 0.42422029 0.45551398 -0.00000166 -0.00000239 -0.00001046
0.71746844 0.59881073 0.31968984 -0.00003278 0.00002474 0.00001608
0.35635805 0.39468357 0.42369303 -0.00001833 -0.00000324 0.00001031
0.36513767 0.35406354 0.37449262 -0.00003050 -0.00000724 -0.00000980
0.31560978 0.67668116 0.36739379 -0.00000512 -0.00000114 0.00000318
0.23734778 0.74432474 0.38597664 -0.00001090 -0.00000728 0.00001709
0.35755685 0.38444638 0.40373164 -0.00002215 -0.00000554 -0.00000376
0.79526776 0.11569147 0.55123103 -0.00002669 -0.00000335 -0.00001484
0.29015371 0.50168079 0.36114913 -0.00000953 0.00000185 0.00003109
0.74746424 0.57310623 0.31233805 0.00003591 0.00001134 -0.00000652
0.64370495 0.20467268 0.66861773 0.00000188 -0.00000623 -0.00000170
0.59173602 0.32546794 0.43693459 0.00000519 -0.00000182 -0.00000327
0.70665878 0.14691016 0.61798036 -0.00000064 -0.00001492 0.00001098
0.70065570 0.24874938 0.80657834 0.00001709 0.00002884 -0.00000649
0.34893981 0.45501763 0.35688758 -0.00000475 -0.00000532 0.00000443
0.64431638 0.22325552 0.44058475 0.00000164 -0.00000126 -0.00000296
0.67287880 0.21105702 0.74925441 0.00000426 -0.00001396 0.00000746
0.44086128 0.60842156 0.41627824 0.00000954 0.00002338 0.00001938
0.41821036 0.65382302 0.38690865 0.00000396 0.00002076 0.00001929
0.47758383 0.32473862 0.28010601 -0.00000805 0.00000106 -0.00001976
0.67457330 0.37752280 0.62087029 -0.00000692 0.00002319 0.00001096
0.67050409 0.35258764 0.56839871 -0.00000043 -0.00000606 0.00000126
0.65585995 0.18709283 0.47453994 0.00000204 -0.00000138 -0.00000588
0.57869369 0.22999477 0.67133820 -0.00000662 0.00000863 0.00000001
0.36102265 0.37048239 0.39386433 -0.00002208 -0.00000821 -0.00000488
0.87636817 0.19760136 0.68696356 0.00001146 -0.00000141 -0.00000499
0.71851492 0.25790796 0.47900417 0.00000436 -0.00000099 -0.00000517
0.35587603 0.56094778 0.41290399 -0.00001656 0.00000463 0.00000245
0.74146348 0.26637271 0.48001286 0.00000157 -0.00000550 -0.00000784
0.90834260 0.12266434 0.64194459 0.00001513 -0.00000731 -0.00000506
0.64153636 0.29084867 0.47805497 -0.00000178 -0.00000286 -0.00000153
0.27445048 0.78772473 0.35805085 0.00001247 0.00003940 0.00000746
0.73726028 0.39556059 0.53696698 0.00002556 -0.00000284 -0.00000455
0.54500872 0.34785897 0.59474790 -0.00000630 0.00001356 0.00001467
0.72847378 0.30958495 0.61021864 0.00000777 -0.00000332 -0.00000405
0.09490801 0.82282037 0.34322241 -0.00003511 -0.00001505 -0.00000895
0.44578233 0.24395193 0.44150761 -0.00001117 -0.00000651 -0.00000035
0.48901635 0.40679619 0.30536860 -0.00000142 0.00000284 -0.00000849
0.77416378 0.25386164 0.58571059 -0.00000411 0.00000502 0.00000286
0.30258232 0.49300769 0.33371803 -0.00000418 -0.00001109 -0.00002557
0.58513874 0.33868888 0.42971900 0.00000292 0.00000104 -0.00000536
0.18630511 0.68902850 0.33619571 -0.00001670 0.00000388 -0.00002220
0.60305285 0.17491037 0.46147811 0.00000160 0.00000131 0.00000241
0.56984651 0.39621094 0.45671508 0.00000769 0.00000491 -0.00000147
0.34936917 0.41319540 0.42906067 -0.00002528 -0.00000429 0.00000748
0.92567050 0.18597190 0.65132987 0.00000321 0.00000330 0.00000404
0.61080891 0.17952345 0.62622303 -0.00000501 -0.00000419 0.00000976
0.54385573 0.19401875 0.62421477 -0.00002318 0.00001233 -0.00001028
0.64074183 0.32680869 0.30737230 0.00001195 0.00000528 0.00000398
0.60808617 0.27064344 0.22437242 0.00000856 -0.00002096 -0.00000307
0.45940974 0.37618205 0.25566897 -0.00001016 -0.00000785 -0.00001453
0.45691258 0.42780063 0.24449179 0.00000888 0.00001631 -0.00000561
0.19715939 0.63569129 0.38968059 -0.00002887 -0.00000842 -0.00001154
0.86268127 0.10071300 0.58137000 -0.00001411 -0.00000136 0.00000547
0.64570981 0.17221396 0.63255012 -0.00000205 -0.00000794 0.00001216
0.67527175 0.36510560 0.63739562 -0.00000279 0.00002337 0.00001639
0.73799992 0.23955183 0.45770317 0.00000262 -0.00001525 -0.00001033
0.30963647 0.75273228 0.33275393 -0.00000153 0.00001243 -0.00002711
0.45828083 0.25479710 0.52087450 -0.00001273 0.00000013 0.00001384
0.34047392 0.56497127 0.34388533 -0.00000145 0.00000135 0.00000145
0.68917507 0.31829587 0.66725755 0.00000156 0.00000403 0.00002017
0.04714339 0.89685512 0.26527524 -0.00003216 -0.00003354 -0.00001673
0.62023765 0.33402544 0.32470253 0.00000648 0.00000111 0.00000555
0.59386450 0.18652837 0.62163168 -0.00000295 -0.00000003 0.00000415
0.71549791 0.29666626 0.65148562 0.00001157 0.00000042 0.00000408
0.41319653 0.63238466 0.31413791 0.00000923 -0.00000061 -0.00002518
0.33918238 0.74783748 0.36552408 0.00001907 0.00002824 0.00001923
0.44341797 0.36429724 0.29509136 -0.00000429 0.00000624 -0.00000797
0.59479308 0.34605676 0.33723879 0.00000501 0.00000106 0.00000127
0.90380394 0.25378379 0.59816211 0.00000549 -0.00001408 0.00001167
0.68773353 0.32570609 0.66550565 0.00000190 0.00000711 0.00002246
0.20539972 0.80241930 0.37491280 -0.00000535 0.00002626 0.00002537
0.49267220 0.39595333 0.54000002 -0.00000359 0.00001604 0.00001220
0.61988050 0.21685627 0.37598795 -0.00000324 -0.00000044 0.00000004
0.65737587 0.28177023 0.29224384 0.00001170 -0.00000468 0.00000618
0.66544795 0.20916668 0.74759990 0.00000344 -0.00001908 0.00000142
0.72624111 0.27032056 0.43333369 0.00001524 0.00002673 -0.00001193
0.64242262 0.24194366 0.44526425 0.00000200 -0.00000075 -0.00000212
0.43230146 0.45280099 0.31587255 -0.00000158 -0.00000347 -0.00000938
0.70197695 0.42015910 0.56895632 0.00000224 0.00002717 0.00001597
0.53047222 0.33896482 0.59398872 -0.00000801 0.00001042 0.00001837
0.65998298 0.13855074 0.60306031 -0.00000093 -0.00001574 0.00001049
0.61411327 0.28835151 0.65959656 0.00000085 -0.00000021 0.00001275
0.32607022 0.54678684 0.36624083 0.00000296 0.00000049 0.00000171
0.08097148 0.90591067 0.30123296 0.00002228 0.00001487 -0.00000562
0.82474047 0.22723655 0.69136941 -0.00000937 -0.00000656 0.00000831
0.59861267 0.10257242 0.54178393 -0.00001463 -0.00003402 0.00000748
0.65340632 0.24190933 0.47453079 0.00000111 -0.00000034 -0.00000051
0.09601062 0.81996250 0.35022503 -0.00003838 -0.00001378 0.00000106
0.62477863 0.34731621 0.30984083 0.00001085 0.00000846 0.00000133
0.60485500 0.27011904 0.44442266 0.00000018 -0.00000093 -0.00000126
0.60296816 0.12422720 0.34034738 -0.00001008 -0.00004427 -0.00002948
0.17976962 0.78180987 0.33538622 -0.00001595 0.00000103 -0.00002182
0.39223561 0.30721256 0.40471750 -0.00000289 -0.00000124 -0.00000184
0.37612250 0.67413479 0.37844160 -0.00000485 0.00001418 0.00001381
0.69407666 0.22988601 0.42840570 0.00000438 -0.00000951 -0.00000098
0.38361403 0.44755015 0.50180966 -0.00001521 0.00000331 0.00002945
0.60865176 0.09423365 0.47074434 -0.00001427 -0.00003460 -0.00000603
0.11078531 0.85458177 0.35447282 -0.00000048 0.00001808 0.00002255
0.63618594 0.28428343 0.73549992 -0.00000242 0.00000344 0.00000023
0.06477476 0.91738898 0.25685287 0.00003660 0.00001878 -0.00001994
0.66785920 0.35785910 0.55803674 -0.00000011 -0.00000144 0.00000001
0.57076019 0.39965615 0.43429658 0.00000910 0.00000618 -0.00000194
0.91753668 0.20006187 0.56075257 -0.00000373 -0.00000572 0.00000429
0.70967340 0.28576159 0.60694635 -0.00000074 0.00000017 -0.00000560
0.92848372 0.18529865 0.65015054 0.00000248 0.00000535 0.00000049
0.83365631 0.21635821 0.70099175 0.00000034 0.00002475 0.00001507
0.60773802 0.34410232 0.32983774 0.00000697 0.00000194 0.00000289
0.74629062 0.49091011 0.43098536 0.00003274 0.00001034 0.00000073
0.31924963 0.76549059 0.35732839 0.00001649 0.00004112 0.00001092
0.42392489 0.39134023 0.29728627 -0.00000138 0.00000074 0.00000091
0.85895097 0.14886694 0.51521951 0.00000914 -0.00000698 -0.00002499
0.62536490 0.17304751 0.46765521 0.00000277 0.00000202 0.00000110
0.34811425 0.53769237 0.33113611 0.00000253 0.00000889 -0.00000523
0.87246728 0.22782393 0.68769860 0.00002839 -0.00000123 0.00003037
0.33651692 0.45415661 0.33097696 -0.00000774 -0.00002369 0.00000135
0.64710325 0.24882035 0.26844910 0.00001122 -0.00002168 0.00000870
0.48160726 0.36255690 0.24686189 -0.00001504 -0.00000773 -0.00001966
0.29526141 0.76007265 0.38133150 0.00000424 0.00001699 0.00002816
0.45829800 0.56287020 0.35560179 0.00001250 -0.00000151 -0.00001350
0.68719429 0.27574542 0.81295127 0.00001209 0.00000311 0.00001867
0.60726631 0.25463563 0.77850258 0.00000434 -0.00000812 0.00003034
0.58541346 0.35894337 0.33676818 0.00000487 0.00000044 0.00000204
0.72318864 0.59926534 0.26758924 -0.00000041 0.00004140 -0.00000156
0.85958183 0.08495712 0.60693252 -0.00000578 -0.00001840 0.00002051
0.61395639 0.20981701 0.76554614 -0.00001166 -0.00003039 0.00002583
0.39092693 0.43042260 0.50411445 -0.00001319 -0.00000225 0.00002494
0.37589806 0.65814871 0.30190849 -0.00000367 -0.00000082 -0.00003131
0.34766546 0.50897425 0.33130673 -0.00000786 -0.00000485 -0.00000389
0.48653519 0.20614624 0.46392491 -0.00000468 -0.00002453 -0.00002166
0.41561243 0.43715730 0.26218614 -0.00000273 0.00001799 -0.00000850
0.65465891 0.22617288 0.46636370 0.00000126 -0.00000044 -0.00000105
0.44881424 0.40297884 0.31410015 -0.00000057 0.00000145 -0.00000304
0.44983554 0.54885352 0.35115930 0.00000750 0.00000164 -0.00001338
0.90539885 0.23619707 0.58420497 0.00000188 -0.00000760 0.00000046
0.83766598 0.18974458 0.69562525 0.00001552 0.00000738 -0.00000769
0.45009771 0.61336786 0.40265656 0.00001891 0.00002045 0.00001171
0.27285668 0.61395413 0.33099529 0.00000506 0.00002491 0.00002065
0.83937997 0.26251531 0.58107698 0.00000439 0.00001223 -0.00000324
0.44294509 0.46536246 0.32587957 0.00000242 0.00000694 -0.00000208
0.47467330 0.50586909 0.46684802 0.00001178 0.00001480 0.00000743
0.67433852 0.39792842 0.58377904 -0.00001225 0.00001430 0.00000435
0.72106242 0.22081901 0.77092069 0.00002319 -0.00001867 0.00001136
0.71450752 0.36684480 0.52835572 0.00000234 -0.00000519 -0.00000819
0.79973203 0.20780531 0.51387185 -0.00000391 0.00001643 -0.00001997
0.41735852 0.48565584 0.32918277 -0.00000428 -0.00000067 -0.00000303
0.55853534 0.41040626 0.45566627 0.00000831 0.00000579 0.00000020
0.28340182 0.59510678 0.33163872 0.00000108 0.00000335 -0.00000952
0.42160863 0.47821012 0.32782486 -0.00000173 0.00000235 -0.00000220
0.25061452 0.59715170 0.34398609 -0.00000438 -0.00000081 -0.00000715
0.60023052 0.28663522 0.74683279 -0.00001976 0.00003179 0.00001552
0.73551196 0.23883049 0.77477688 0.00002533 -0.00000036 0.00000122
0.61276102 0.30586264 0.46987876 0.00000386 -0.00000256 -0.00000275
0.38714737 0.34790245 0.45448926 -0.00000791 0.00000012 0.00000203
0.19486602 0.63934606 0.39268273 -0.00003939 -0.00001813 -0.00000162
0.57855284 0.35472074 0.39361131 0.00000383 -0.00000067 -0.00000456
0.34701052 0.48518527 0.42026269 -0.00001485 0.00000978 -0.00000534
0.81941974 0.26309809 0.66697580 -0.00000666 0.00001698 0.00001297
0.66489601 0.30613631 0.22326753 0.00003392 0.00001821 -0.00001721
0.83817434 0.25129232 0.66408366 0.00000257 -0.00000001 -0.00000858
0.14231199 0.84162068 0.36127737 0.00000100 0.00002743 0.00002357
0.61394840 0.24386378 0.67135763 0.00000134 0.00000292 0.00000193
0.35680690 0.61741072 0.39261058 -0.00000989 0.00001157 0.00000876
0.44920808 0.36500138 0.29127750 -0.00000099 0.00000440 -0.00000651
0.30530393 0.76629323 0.37210992 0.00000971 0.00002868 0.00002553
0.28787863 0.59895277 0.33771053 -0.00000981 0.00001441 -0.00001137
0.58898121 0.20447804 0.74176174 -0.00000236 -0.00003448 0.00003078
0.66330564 0.30886248 0.28972718 0.00001919 -0.00000027 0.00000861
0.27364898 0.52852118 0.36507985 0.00000469 -0.00000111 0.00002277
0.73895139 0.22675911 0.53953975 -0.00000577 0.00000032 -0.00000047
0.47531679 0.53910869 0.44056988 0.00002128 0.00000875 0.00000661
0.05865260 0.87654334 0.27919579 -0.00002970 -0.00000742 -0.00000081
0.58421123 0.37569082 0.32418844 0.00000605 0.00000618 0.00000487
0.94578189 0.18591352 0.66333485 0.00004264 0.00002204 0.00000824
0.41604751 0.39460683 0.24505512 -0.00000161 -0.00001914 -0.00001539
0.44986874 0.40162778 0.23822081 0.00000230 -0.00000126 -0.00001916
0.90627360 0.16892907 0.55910385 0.00000404 0.00000172 -0.00000242
0.91777593 0.14796582 0.60465068 0.00000672 0.00000399 -0.00000445
0.72302943 0.50730491 0.45702189 0.00001522 0.00003214 0.00001631
0.39814937 0.39605981 0.50153714 -0.00001814 -0.00000820 0.00001547
0.89444381 0.12519243 0.59780037 0.00000379 -0.00000171 -0.00000364
0.82262111 0.21235768 0.52238244 0.00001921 0.00000545 -0.00001550
0.43851984 0.23807827 0.45588726 -0.00000663 -0.00001079 -0.00001689
0.32853189 0.70860976 0.38795400 0.00000188 -0.00000403 0.00002310
0.60390246 0.17432988 0.46582901 0.00000298 -0.00000124 0.00000145
0.85252196 0.19961764 0.53521067 0.00000586 -0.00001311 -0.00000640
0.42496684 0.43112904 0.51457375 -0.00000706 0.00000518 0.00002239
0.58192819 0.22620837 0.76721096 -0.00001481 -0.00001916 0.00005018
0.75204295 0.17665301 0.53444123 -0.00000766 -0.00000503 -0.00001083
0.72034222 0.60924482 0.28664723 -0.00000150 -0.00002314 -0.00001370
0.52687818 0.22816856 0.59250134 -0.00000953 -0.00000812 0.00001327
0.27708274 0.50728887 0.34208888 -0.00002824 -0.00002426 -0.00000493
0.73119771 0.26540864 0.48519841 -0.00000621 -0.00000668 -0.00000429
0.67769909 0.45853958 0.45014638 -0.00000311 0.00000258 -0.00000548
0.34335238 0.45161250 0.45432436 -0.00003005 -0.00000492 0.00000407
0.63247740 0.19576481 0.44873691 -0.00000046 -0.00000727 -0.00000171
0.34273750 0.55415469 0.33512518 0.00000740 0.00001223 0.00000179
0.66608340 0.36172792 0.55735207 0.00000036 -0.00000083 -0.00000072
0.34624797 0.48688668 0.42670545 -0.00001721 0.00001026 -0.00000746
0.47840363 0.21566208 0.46296313 -0.00000840 -0.00001173 -0.00000837
0.91218626 0.13932820 0.62118399 0.00000209 -0.00000339 0.00000182
0.67987680 0.27859181 0.81652582 0.00001793 0.00000364 0.00001822
0.81816834 0.26104519 0.59900600 -0.00000015 0.00000331 0.00000271
0.74313402 0.51456630 0.41507143 0.00002875 0.00001357 0.00000693
0.69710517 0.15618898 0.55553037 -0.00000441 -0.00000113 -0.00001191
0.21239890 0.70180869 0.35981071 0.00000157 0.00000301 0.00000320
0.51510561 0.20960289 0.56454700 -0.00001562 -0.00000521 0.00000839
0.43468532 0.66614634 0.35225049 0.00002887 0.00002046 -0.00000288
0.62382716 0.35585654 0.62205988 -0.00000290 0.00001961 0.00000715
