0.42159387 0.41929716 0.35722142 0.00000919 -0.00001217 0.00000855
0.21012044 0.36225936 0.44788772 -0.00000083 0.00000312 -0.00000936
0.42239350 0.61722177 0.64096910 -0.00000603 -0.00000932 -0.00000215
0.48561463 0.69541854 0.78593636 -0.00001034 0.00001999 0.00000639
0.64309597 0.71283334 0.87017483 0.00002144 0.00004066 -0.00002173
0.59080869 0.70333660 0.88431740 0.00001292 -0.00000143 0.00002928
0.11429097 0.26558995 0.39845395 -0.00000127 0.00000826 -0.00001025
0.62213868 0.58808553 0.54007775 -0.00000198 -0.00000494 -0.00000247
0.32693809 0.51725441 0.34128830 -0.00001018 -0.00000707 0.00000166
0.68170577 0.65056199 0.47496310 -0.00000444 -0.00001176 0.00000240
0.53408921 0.69956499 0.79936939 0.00001608 0.00001863 0.00000411
0.64610058 0.58172292 0.59996998 -0.00000426 -0.00000259 0.00000125
0.14718245 0.14743729 0.53345346 0.00001580 -0.00004337 -0.00002795
0.73058528 0.56609356 0.29142129 0.00000838 -0.00001437 -0.00001663
0.47553962 0.48960584 0.39262840 0.00001426 -0.00001089 -0.00000890
0.46447885 0.47844642 0.39811417 0.00000636 -0.00001018 -0.00000736
0.80607343 0.56312931 0.26768333 0.00002242 -0.00003028 -0.00001900
0.24465749 0.24579859 0.13400941 -0.00001833 0.00000500 -0.00003064
0.62932062 0.64109868 0.61655509 0.00000146 -0.00000806 0.00000155
0.54960358 0.54952645 0.51526642 0.00000493 -0.00000515 0.00000361
0.30980727 0.22215417 0.17219874 0.00001229 -0.00001738 -0.00001041
0.15811282 0.15690313 0.48662189 -0.00000507 -0.00004702 0.00000270
0.66936666 0.55893737 0.60471791 0.00000584 -0.00000976 -0.00000226
0.12781322 0.16160473 0.53602302 -0.00000648 0.00000719 0.00003091
0.22684973 0.27399620 0.17862915 -0.00002135 0.00000336 -0.00001291
0.56080252 0.82114351 0.60279691 -0.00000105 0.00002058 0.00002941
0.35241598 0.36071759 0.26915300 -0.00000152 -0.00000308 0.00000132
0.59258550 0.66023886 0.91730750 -0.00000302 0.00001735 0.00004034
0.51540631 0.56204742 0.38662100 0.00000139 -0.00000133 -0.00000019
0.42139828 0.61681253 0.33971992 -0.00000213 -0.00000169 -0.00000536
0.44382268 0.85341978 0.53285974 -0.00003165 0.00001213 -0.00000693
0.46213406 0.39785942 0.22695784 0.00002234 0.00000025 -0.00002461
0.43913567 0.85786229 0.47841978 -0.00002034 0.00003933 -0.00000903
0.63249767 0.64441645 0.28059900 -0.00001426 0.00000097 -0.00002840
0.15696317 0.52955663 0.32187444 -0.00001368 -0.00001444 0.00000852
0.35265791 0.15714507 0.13194428 0.00001651 -0.00000572 0.00001421
0.71563363 0.68945056 0.65241426 0.00001621 -0.00001564 0.00000615
0.54566902 0.87601584 0.49385360 0.00000681 0.00004207 0.00000001
0.44503671 0.60770875 0.76956052 0.00000936 -0.00000861 0.00000546
0.90547371 0.62474775 0.36092004 0.00000643 -0.00000990 0.00001956
0.06134217 0.27026495 0.42226654 -0.00003671 0.00001394 -0.00000427
0.29818624 0.26449433 0.24638113 0.00000132 -0.00002848 0.00000519
0.10121741 0.18835497 0.55230618 -0.00003401 0.00002812 0.00005134
0.08797228 0.21528536 0.43874875 -0.00001093 -0.00002734 -0.00001779
0.66390401 0.64719534 0.45588902 -0.00000736 -0.00000378 0.00000661
0.44991678 0.66831052 0.84231180 -0.00004346 0.00001240 0.00001460
0.25912178 0.31443855 0.54452020 0.00000919 -0.00002873 0.00000897
0.46108481 0.85449910 0.55894077 -0.00001132 0.00003613 0.00002307
0.79494572 0.65071380 0.35640034 0.00000954 0.00000902 0.00001679
0.51865536 0.53191859 0.42796510 0.00000561 -0.00000178 0.00000007
0.49379352 0.50442195 0.43602130 0.00000242 -0.00000278 -0.00000941
0.25030971 0.53547138 0.38764456 -0.00002322 0.00001355 0.00000041
0.66253042 0.73671198 0.41424805 0.00001974 0.00002242 -0.00000135
0.34295359 0.46630892 0.57310903 0.00000375 0.00000177 0.00001508
0.40017501 0.68207812 0.62283796 -0.00001146 0.00000250 0.00000906
0.70898795 0.74878603 0.71941042 0.00003503 -0.00004530 0.00000079
0.30654019 0.17374225 0.19098973 0.00000323 -0.00000342 0.00001974
0.34735662 0.65709358 0.55100209 -0.00002650 -0.00001535 0.00000462
0.87102598 0.55085623 0.27518103 -0.00000235 -0.00000975 -0.00004270
0.47858366 0.60632741 0.67155612 0.00000433 -0.00000701 0.00000328
0.78940934 0.62782699 0.36319023 0.00000763 -0.00002101 0.00000428
0.89077860 0.59853971 0.28772435 0.00002747 0.00001325 -0.00001248
0.89655274 0.64266616 0.34274170 -0.00000500 0.00002374 0.00000997
0.78786331 0.67060041 0.32202202 0.00001987 0.00001177 0.00000063
0.68464684 0.74133295 0.70040232 -0.00001365 0.00001402 0.00000586
0.08045745 0.29013607 0.42124212 -0.00002800 -0.00000241 -0.00001299
0.34674489 0.39412212 0.29434347 -0.00000348 -0.00000724 -0.00000118
0.64592040 0.77908134 0.45524466 0.00000917 0.00000974 -0.00000204
0.60574740 0.61754692 0.58206528 0.00000184 -0.00000287 0.00000319
0.72143346 0.58538818 0.26624969 -0.00001393 -0.00002652 -0.00002401
0.19519371 0.51834744 0.36363205 -0.00003847 0.00000435 0.00000824
0.54149938 0.60666806 0.35530901 0.00000494 0.00000039 -0.00001051
0.41062662 0.62303615 0.67824221 -0.00000878 -0.00000925 0.00000822
0.40422457 0.78445214 0.58725846 -0.00001959 0.00002161 0.00002259
0.11246352 0.24473731 0.49269363 0.00000516 -0.00000696 0.00000698
0.27471516 0.53575277 0.49044836 -0.00001828 0.00000459 0.00000317
0.67577040 0.74677497 0.59685814 0.00000328 0.00001014 0.00000596
0.33338994 0.39578316 0.57172948 0.00002618 -0.00001516 0.00002364
0.70959789 0.67640531 0.33646744 0.00001286 0.00000926 -0.00000488
0.30940402 0.26563540 0.14784223 0.00001247 -0.00002586 -0.00002455
0.85212600 0.56584305 0.32468769 0.00001136 -0.00001405 0.00001460
0.63971907 0.69884175 0.63385576 0.00000559 0.00000522 0.00000386
0.49108922 0.70521724 0.67149526 0.00000292 0.00000401 0.00000896
0.30784687 0.60896045 0.42428875 -0.00001549 0.00001744 -0.00000902
0.35040322 0.62875700 0.36672586 -0.00001053 0.00001976 -0.00000946
0.52538091 0.62535691 0.63416815 0.00000089 -0.00000003 0.00000871
0.64798379 0.63317031 0.46160555 0.00000684 -0.00000094 0.00000240
0.36088231 0.50854439 0.55588382 0.00000354 -0.00000093 0.00001602
0.57749146 0.86662889 0.47970760 0.00001511 0.00004228 -0.00000563
0.39941487 0.79404062 0.57239091 -0.00002661 0.00001290 0.00002367
0.30362397 0.33986583 0.15782198 -0.00000308 0.00001598 -0.00003538
0.50968891 0.64049733 0.33160624 -0.00001006 -0.00001779 -0.00000945
0.19125225 0.38046092 0.52924770 -0.00001542 0.00000059 0.00000097
0.70722485 0.68255603 0.62165308 0.00000302 -0.00000444 0.00000964
0.90637720 0.54193091 0.29416588 0.00000896 0.00003091 0.00000557
0.12771027 0.20527816 0.42276415 0.00001512 -0.00000753 -0.00002950
0.47267491 0.45708328 0.26255274 0.00002128 0.00000151 0.00000721
0.93113953 0.55173993 0.34842992 0.00000209 -0.00000976 0.00001404
0.31852585 0.17598924 0.09562869 0.00000984 -0.00002592 -0.00000237
0.76949960 0.74257183 0.56057346 0.00000992 0.00002117 0.00002551
0.59965253 0.55217838 0.46708879 0.00001632 -0.00001401 0.00000511
0.11909809 0.34199271 0.50438589 -0.00003082 0.00001365 0.00001176
0.28918970 0.17962182 0.13462111 -0.00001079 -0.00002042 -0.00001206
0.11178315 0.23502095 0.50302082 -0.00000668 0.00000010 0.00000638
0.84318948 0.74059939 0.51354623 0.00000162 -0.00011303 -0.00005832
0.78537953 0.56238121 0.26744226 0.00002676 -0.00001696 -0.00003811
0.40711331 0.82488078 0.45381188 0.00000805 0.00002177 -0.00002315
0.30671692 0.21895057 0.18051149 0.00000637 -0.00001480 -0.00000301
0.30896991 0.59924501 0.41071329 -0.00001930 0.00000208 -0.00000752
0.37930089 0.56470966 0.31536254 -0.00000752 0.00000508 -0.00000705
0.36699954 0.27681202 0.19571792 0.00001499 -0.00001643 0.00002267
0.45936456 0.50341815 0.28266925 0.00002080 0.00000789 -0.00000437
0.47229397 0.49381673 0.35293508 0.00001444 -0.00000722 -0.00000061
0.40465698 0.58642882 0.32780379 -0.00000214 -0.00000312 -0.00000982
0.62818301 0.59293133 0.41418031 0.00001379 -0.00000458 -0.00000640
0.16044389 0.38001648 0.46152490 -0.00001366 0.00001463 -0.00001325
0.49248084 0.83006716 0.38613626 -0.00000066 0.00003353 -0.00002252
0.24290726 0.32882220 0.47263202 0.00000581 -0.00000012 -0.00000781
0.18022580 0.27144378 0.50922644 -0.00003926 -0.00003019 -0.00001678
0.49267134 0.76345193 0.63766772 -0.00000584 0.00000528 0.00000879
0.74875164 0.69554979 0.56217527 0.00000715 -0.00000338 0.00000337
0.38066250 0.49376610 0.23224543 -0.00002320 -0.00000059 -0.00001889
0.47038245 0.39862728 0.24207504 0.00002850 -0.00002598 -0.00000684
0.36206886 0.70227790 0.56638783 -0.00000308 -0.00000552 0.00002635
0.12822932 0.32199544 0.41485292 -0.00001479 0.00001446 -0.00001339
0.65501219 0.62324977 0.63465714 0.00000826 -0.00000780 0.00002166
0.69679981 0.66134995 0.28277135 0.00000306 0.00000784 -0.00000868
0.29538161 0.28235698 0.14494920 0.00000726 -0.00000103 -0.00003016
0.38729537 0.75284326 0.58516592 0.00000292 -0.00000820 0.00002486
0.38647857 0.42719638 0.35754487 -0.00000374 -0.00000747 0.00000693
0.39708722 0.76705021 0.38894865 -0.00002221 0.00001266 -0.00002120
0.10055164 0.21408767 0.52934557 0.00000373 0.00000760 0.00003511
0.62715256 0.59210253 0.58051664 -0.00000272 -0.00000149 0.00000472
0.75621074 0.64088249 0.24132520 0.00000745 0.00002332 -0.00004856
0.64217883 0.61930060 0.42813581 0.00000398 -0.00000272 0.00000042
0.44300073 0.45809653 0.40981844 0.00000228 -0.00001202 0.00000345
0.15310749 0.17719725 0.44853544 0.00004584 -0.00001052 -0.00003473
0.39218572 0.40187636 0.33227375 0.00000082 -0.00001370 0.00000729
0.27677423 0.35611382 0.58193487 -0.00000361 -0.00001955 0.00001261
0.89912397 0.56604892 0.33898297 0.00000664 0.00000441 0.00001326
0.58458507 0.85759717 0.53338647 0.00000270 0.00001159 0.00001099
0.40706697 0.36015135 0.18558975 0.00000580 0.00001747 -0.00000341
0.49773580 0.87775320 0.50250781 -0.00000279 0.00004123 -0.00001124
0.60444850 0.76290196 0.36267972 0.00001664 0.00001284 -0.00001908
0.47480437 0.51707333 0.37115890 0.00000782 -0.00000301 -0.00000349
0.33019063 0.35835567 0.16082740 -0.00001155 0.00000636 -0.00004071
0.76694119 0.63225228 0.23933300 0.00000740 0.00000769 -0.00004034
0.36265397 0.51263601 0.25248808 -0.00001284 0.00002031 -0.00002817
0.63186365 0.71354628 0.32613248 0.00000010 0.00002874 -0.00000208
0.26928255 0.52922285 0.47283620 -0.00002138 0.00000238 -0.00000284
0.80809051 0.73551089 0.51229364 0.00002197 -0.00001448 0.00001244
0.21974930 0.20335291 0.19806187 -0.00001994 -0.00003088 0.00004513
0.34339628 0.46914959 0.38438776 -0.00000509 -0.00000294 0.00000517
0.86479890 0.59925616 0.27780721 -0.00000171 -0.00001744 -0.00001815
0.40249833 0.64459401 0.34431344 0.00000145 0.00000125 -0.00002486
0.91882610 0.59569740 0.35523179 0.00001878 -0.00002767 0.00001109
0.49062079 0.75178540 0.64496553 -0.00000783 0.00000780 0.00001296
0.13897523 0.34834930 0.43044028 -0.00001321 0.00001913 -0.00001004
0.44006312 0.66950995 0.81590480 -0.00003766 0.00001414 0.00001256
0.56509227 0.58710921 0.57773685 0.00001097 -0.00000047 0.00000267
0.53348005 0.73581451 0.32520160 0.00000833 0.00000489 -0.00003662
0.47171485 0.43881226 0.25061601 0.00001839 -0.00001386 -0.00000520
0.34612203 0.66065240 0.54971945 -0.00003293 0.00000187 0.00001732
0.27265948 0.24410157 0.22085606 -0.00000567 -0.00002045 0.00000011
0.57269037 0.65295649 0.61501247 0.00000528 0.00000342 0.00000287
0.41833282 0.49630481 0.22921427 -0.00000366 0.00000731 -0.00004090
0.56221128 0.57508922 0.57484210 0.00001509 -0.00000265 0.00000571
0.36225331 0.42260715 0.51375729 0.00000645 -0.00001463 0.00000180
0.62981057 0.59301537 0.45537424 0.00001296 -0.00000296 0.00000011
0.53249681 0.79909831 0.35990596 0.00002150 0.00000481 -0.00001348
0.68409771 0.54905283 0.61907750 -0.00000552 -0.00001470 -0.00001122
0.61748427 0.66069871 0.86801022 0.00001267 -0.00000886 -0.00000643
0.48273963 0.68604535 0.76306063 0.00001041 0.00000541 0.00000171
0.92535603 0.50630599 0.31675416 0.00007248 -0.00003256 0.00000198
0.21518838 0.43821681 0.52633840 -0.00001792 -0.00000712 0.00000008
0.49451935 0.67425787 0.70907545 0.00001087 0.00000228 0.00000878
0.19896528 0.21638870 0.18352893 -0.00001324 -0.00003850 -0.00002629
0.54571360 0.53883111 0.41599575 0.00000307 -0.00001365 -0.00000848
0.33869812 0.48866981 0.26170853 -0.00003379 -0.00000071 -0.00001048
0.61562335 0.59681273 0.34820601 -0.00000327 -0.00001184 0.00000327
0.59470981 0.84315270 0.43808722 0.00000050 0.00003266 -0.00002842
0.54971856 0.81312418 0.60999435 0.00000403 0.00000702 0.00003108
0.39204672 0.64983267 0.59121621 -0.00000376 -0.00000236 0.00001139
0.42672619 0.45605117 0.47611877 -0.00000124 -0.00001727 0.00001030
0.33874959 0.67181867 0.52711141 -0.00003444 -0.00000398 0.00000669
0.55035776 0.54160923 0.49421647 -0.00000263 -0.00000393 0.00000983
0.61594594 0.75934833 0.62649542 0.00001066 -0.00000075 0.00002915
0.64124626 0.70051646 0.30691251 -0.00001345 0.00002123 -0.00001624
0.66796815 0.68628556 0.88993698 0.00001304 0.00003393 -0.00001314
0.65816599 0.72785270 0.62809974 -0.00000252 0.00000170 0.00000834
0.51102561 0.57854933 0.61659116 0.00000166 -0.00000892 0.00002038
0.52304041 0.59416932 0.77849960 0.00001363 0.00001335 0.00001316
0.33938104 0.26108053 0.18628210 0.00000792 -0.00001336 0.00000818
0.54992104 0.54789805 0.50127661 0.00000200 -0.00000190 -0.00000019
0.52960980 0.58647346 0.85100806 0.00002914 -0.00002881 0.00002629
0.34598646 0.47829798 0.24889579 -0.00001552 0.00001821 -0.00001571
0.49729228 0.69085419 0.32393956 0.00000355 -0.00000613 -0.00002469
0.78047115 0.62650663 0.36059490 0.00001265 -0.00001843 -0.00000642
0.13215449 0.15403499 0.52728301 -0.00003108 -0.00004031 -0.00000261
0.11641612 0.24785084 0.48903444 -0.00000090 -0.00001054 0.00000671
0.39949378 0.78825372 0.57786471 -0.00002334 0.00001650 0.00002095
0.68075943 0.69669771 0.46742252 0.00000306 -0.00000124 -0.00000991
0.16701497 0.34317237 0.42443889 -0.00000017 0.00000321 -0.00001886
0.42242610 0.80084085 0.39313805 -0.00002784 0.00000649 -0.00002247
0.22568806 0.48338223 0.52175522 -0.00003729 0.00001693 0.00000378
0.21162874 0.26141170 0.19750418 -0.00001324 0.00001241 0.00000829
0.64446533 0.69013345 0.88769680 0.00000475 0.00001339 -0.00000448
0.22799081 0.41462302 0.57454354 -0.00002364 0.00000798 0.00002262
0.88798422 0.56308043 0.27956688 0.00002926 0.00000832 -0.00002842
0.59966707 0.61294830 0.92785180 0.00002234 -0.00000800 0.00006222
0.34665480 0.64072120 0.52039790 -0.00000956 0.00000155 0.00000297
0.53720611 0.63957500 0.78243589 0.00000735 -0.00000371 0.00000242
0.55006349 0.76615530 0.33883369 0.00002220 0.00001405 -0.00002235
0.44779673 0.44449362 0.35580921 0.00000795 -0.00001265 -0.00000021
0.13039996 0.17878275 0.46522182 -0.00001821 -0.00002287 -0.00000271
0.48277393 0.54892665 0.58335131 -0.00000206 -0.00001119 0.00001459
0.45401263 0.69140154 0.80303544 -0.00001004 0.00004188 -0.00000393
0.08448555 0.26531798 0.46833020 -0.00000936 -0.00000010 0.00000493
0.66815090 0.80387199 0.52448434 0.00002024 0.00002730 -0.00000042
0.06982050 0.25336149 0.37440714 -0.00001257 -0.00000988 -0.00006692
0.46871033 0.59627479 0.66470104 0.00000023 -0.00001105 -0.00000515
0.37472373 0.71133101 0.39515081 -0.00000754 -0.00000195 0.00000667
0.39215139 0.65770620 0.59181166 -0.00000022 -0.00000317 0.00001307
0.34364423 0.39372322 0.51574522 0.00001616 -0.00001189 -0.00000034
0.81523216 0.72839755 0.53626323 0.00000547 0.00000240 -0.00003480
0.42977366 0.56753320 0.56257677 -0.00000128 0.00000130 0.00000344
0.17357749 0.31208435 0.41846749 -0.00000395 -0.00000489 -0.00001512
0.94771183 0.57463706 0.35110676 0.00003768 -0.00003740 -0.00000720
0.41527677 0.83611399 0.47773769 -0.00002026 0.00000625 -0.00000037
0.32469454 0.37824738 0.17479923 -0.00001369 0.00003241 -0.00002827
0.63400942 0.65684736 0.28171265 -0.00001882 0.00000295 -0.00002385
0.24982239 0.19803272 0.19911715 0.00000484 -0.00000966 0.00003260
0.75826901 0.67693985 0.31658772 0.00000970 0.00002104 0.00001051
0.51646501 0.86011791 0.42441487 0.00000493 0.00004032 -0.00001599
0.34541935 0.29795551 0.27454701 -0.00000452 -0.00001781 0.00002244
0.49317235 0.80833757 0.36451745 0.00000364 0.00003017 -0.00002209
0.40839767 0.30762896 0.23251054 0.00003130 -0.00001306 0.00000071
0.79163575 0.62071621 0.35031486 0.00000869 -0.00000433 0.00000505
0.53486991 0.53147072 0.42866516 -0.00000088 -0.00001290 -0.00000421
0.30199128 0.60325253 0.46416828 -0.00002198 0.00000786 0.00000515
0.24872676 0.31011102 0.54101205 0.00000261 -0.00002358 -0.00000393
0.69937027 0.59109700 0.33254057 0.00000698 -0.00000834 -0.00000059
0.55566335 0.60746253 0.87163514 0.00000619 -0.00001378 0.00001277
0.71494472 0.64943630 0.27396700 0.00000331 0.00000584 -0.00001872
0.62753779 0.61148459 0.50478482 0.00000017 -0.00000114 -0.00000096
0.74803013 0.67395329 0.28713492 0.00000958 0.00002520 -0.00001036
0.06906465 0.22021347 0.45218006 -0.00001546 -0.00004061 -0.00001413
0.31833282 0.16115947 0.18687582 0.00002861 -0.00002337 0.00001808
0.48080063 0.70190209 0.84211195 -0.00000606 0.00005763 0.00000349
0.51869744 0.62045544 0.74053067 0.00001086 -0.00000061 0.00000198
0.15721712 0.54050839 0.29251176 -0.00000307 -0.00001557 -0.00003464
0.59058648 0.79580802 0.60334516 0.00000342 0.00000259 -0.00000071
0.47216445 0.50877005 0.34360135 0.00001460 -0.00000183 -0.00000649
0.15114707 0.16138166 0.47655120 -0.00001616 -0.00004491 0.00000343
0.34562871 0.15835737 0.13492826 0.00001538 -0.00000556 0.00000911
0.69281197 0.65182662 0.37452126 0.00001502 -0.00000189 0.00000169
0.65621585 0.67646968 0.28817391 0.00001619 0.00001418 -0.00002069
0.45574141 0.73250198 0.65317440 -0.00000338 0.00001294 0.00000842
0.49708378 0.72962439 0.32801399 -0.00001700 0.00001720 -0.00001336
0.55904800 0.56392378 0.38971135 0.00000090 -0.00000870 -0.00001186
0.34008801 0.44231704 0.34897813 -0.00000990 -0.00000315 0.00000329
0.66654825 0.67589998 0.40910119 0.00000443 -0.00000245 -0.00000764
0.36841860 0.42541355 0.21752460 -0.00001349 -0.00000508 -0.00001313
0.31933919 0.58739489 0.37783983 -0.00002018 -0.00000731 -0.00001187
0.32678366 0.54947495 0.34257266 -0.00001683 0.00000765 0.00000589
0.57658976 0.64355421 0.30785543 -0.00001127 -0.00001374 -0.00001264
0.68451983 0.75616270 0.48653951 0.00002473 -0.00000232 0.00000429
0.40263048 0.82704711 0.52334756 -0.00003016 0.00003259 0.00000759
0.66073984 0.65221870 0.40127748 0.00000688 -0.00000194 -0.00000307
0.59928274 0.70609409 0.31802481 -0.00000895 0.00001884 -0.00001159
0.77418321 0.56716859 0.26558048 -0.00000644 -0.00001400 -0.00002689
0.35553724 0.46723980 0.41349736 -0.00000726 -0.00000167 -0.00000104
0.46606264 0.48128110 0.42608872 0.00000465 -0.00000361 0.00000060
0.72890115 0.56515753 0.31924310 0.00000521 -0.00002326 -0.00000264
0.37284648 0.60770965 0.34217885 -0.00000610 -0.00000397 -0.00001209
0.29930589 0.43915802 0.45250437 -0.00000152 -0.00000394 -0.00000326
0.22499397 0.20878462 0.20338807 0.00000091 -0.00002804 0.00002372
0.54799664 0.85841221 0.56156522 0.00001876 0.00002290 0.00002457
0.60454458 0.69366568 0.89975458 0.00002571 0.00003716 0.00002210
0.12634869 0.16000380 0.53228664 -0.00002279 -0.00001449 0.00001161
0.57485414 0.67211127 0.82902294 0.00001519 -0.00000873 0.00000543
0.92736024 0.57500774 0.33013827 -0.00000572 -0.00001836 0.00001005
0.58411235 0.83356929 0.41348279 0.00001732 0.00002610 -0.00002642
0.55518198 0.58949429 0.83626068 0.00001928 -0.00001876 0.00003177
0.59846252 0.59935308 0.49511650 0.00000183 0.00000071 0.00000031
0.16384225 0.18809414 0.45455828 0.00000112 0.00000658 -0.00003114
0.79052901 0.62327117 0.35218948 0.00000456 -0.00000615 0.00000260
0.75432664 0.58630270 0.33353323 0.00000019 -0.00000781 0.00000041
0.20088196 0.23411410 0.14443527 -0.00005299 0.00002858 -0.00005699
0.92468077 0.54203987 0.34451935 -0.00000672 -0.00001149 0.00001851
0.32083371 0.21467194 0.10304916 0.00003286 0.00000682 -0.00000932
0.49751273 0.50331777 0.43835837 0.00000785 -0.00000382 -0.00001502
0.87317765 0.56917447 0.33216819 0.00001662 -0.00001117 0.00001538
0.08760593 0.19326934 0.53222311 -0.00003117 0.00001993 0.00003595
0.37375510 0.14378498 0.10853238 0.00006440 0.00001336 -0.00004836
0.67038679 0.68333507 0.89849514 0.00004004 0.00003720 0.00005319
0.69123423 0.53515738 0.60661912 -0.00000001 -0.00000295 0.00000845
0.49311659 0.67708659 0.74862468 0.00000417 -0.00000058 0.00000017
0.18229604 0.27167717 0.44740641 0.00000112 -0.00002262 -0.00000529
0.62191820 0.59975117 0.92117274 0.00000173 -0.00006623 0.00000726
0.54112357 0.59052730 0.80973870 0.00000744 0.00003258 -0.00000740
0.39919692 0.29852605 0.21638438 0.00000672 -0.00003815 0.00000370
0.48695475 0.60594308 0.63986582 0.00000272 -0.00000743 0.00000828
0.45188835 0.86368531 0.51233053 -0.00003284 0.00002518 -0.00000040
0.29584232 0.56403446 0.46393576 -0.00000524 -0.00000141 -0.00000122
0.25172961 0.39416248 0.46598542 -0.00000662 -0.00001528 -0.00000691
0.33834034 0.14191291 0.17328408 0.00001150 -0.00003720 0.00003675
0.35568136 0.41076481 0.51785666 0.00001228 -0.00001247 0.00000452
0.46480832 0.64112526 0.86686826 -0.00003853 -0.00002262 0.00004462
0.51905864 0.70650929 0.65369689 0.00000473 0.00000040 0.00000841
0.82129788 0.55887729 0.27904266 0.00001491 -0.00002635 -0.00000643
0.71418804 0.63031423 0.35590702 0.00000642 -0.00000292 0.00000071
0.57158530 0.86888707 0.51834136 0.00001319 0.00004221 0.00000018
0.10726944 0.34275457 0.46069354 -0.00003150 0.00000340 -0.00002309
0.67133826 0.76085579 0.47531313 -0.00000255 0.00000356 -0.00000322
0.16393234 0.17205894 0.46057260 0.00004039 -0.00000751 -0.00001957
0.29185197 0.49615896 0.58287686 -0.00000204 0.00001346 0.00003434
0.26415884 0.33273277 0.50452226 0.00000454 -0.00001330 -0.00000899
0.35672635 0.76244128 0.49953842 -0.00002593 0.00001516 -0.00000554
0.71734267 0.61300838 0.26125723 -0.00001009 -0.00000613 -0.00002032
0.71169734 0.59040374 0.34412727 -0.00000026 -0.00000489 0.00000887
0.80905569 0.65055853 0.24931104 0.00001707 0.00003554 -0.00004287
0.50892103 0.81415802 0.61241978 0.00001389 0.00001424 0.00002177
0.69014716 0.62696213 0.50660026 -0.00000679 -0.00000258 0.00000069
0.31497476 0.38211074 0.20711844 -0.00000827 0.00001505 -0.00001082
0.24111669 0.27850905 0.16486236 -0.00001844 0.00000456 -0.00001942
0.52611363 0.66095096 0.65394574 0.00000000 -0.00000390 0.00000859
0.15270083 0.20119858 0.44653726 0.00001300 0.00000498 -0.00001279
0.34579685 0.14763807 0.12758930 0.00000913 -0.00002965 0.00001696
0.46247897 0.46580184 0.35562819 0.00001262 -0.00001093 -0.00000004
0.75636089 0.73891860 0.56183207 0.00000902 0.00001387 0.00002321
0.32922885 0.44481882 0.44596073 -0.00000363 -0.00000778 0.00000019
0.62843347 0.61718488 0.29421052 -0.00001044 -0.00001162 -0.00001568
0.77601922 0.57371479 0.32709768 -0.00000183 -0.00001154 0.00000245
0.68570471 0.74421650 0.69481277 -0.00001381 0.00001256 0.00001709
0.73522335 0.57460189 0.27049571 -0.00000688 -0.00002538 -0.00000833
0.61334634 0.80234307 0.59874308 0.00001010 0.00001321 0.00002445
0.72280794 0.60017675 0.55220497 0.00000969 -0.00000364 0.00000715
0.30986392 0.36688715 0.17196541 -0.00000517 0.00001803 -0.00003052
0.60571057 0.81533343 0.42625949 0.00000225 0.00000627 -0.00001160
0.61448145 0.69806445 0.30290416 0.00000079 0.00002972 -0.00002879
0.58623236 0.65096951 0.92011315 -0.00001545 0.00000055 0.00003926
0.54358417 0.63017094 0.90019727 -0.00002116 -0.00000304 0.00001728
0.43959555 0.64483774 0.83465201 -0.00004437 0.00001018 0.00003420
0.60473335 0.75311697 0.35780653 0.00001667 0.00000232 -0.00002301
0.26412022 0.40952244 0.46064466 0.00000311 -0.00000260 -0.00000834
0.56733328 0.57129967 0.55210972 0.00001270 0.00000048 0.00000258
0.32281819 0.56409883 0.35964599 -0.00000252 0.00000395 -0.00001341
0.14811248 0.16864341 0.49973491 0.00001061 0.00000259 0.00000762
0.49472785 0.55069923 0.38258776 -0.00000319 -0.00000619 -0.00000222
0.51183546 0.50935519 0.44775558 0.00000062 -0.00001897 -0.00000809
0.36925423 0.63559753 0.55491608 -0.00000618 0.00000225 0.00000647
0.51064980 0.85439360 0.57031381 -0.00002668 0.00001418 0.00001377
0.54413414 0.69133723 0.33218279 0.00000290 -0.00000357 -0.00000850
0.44714898 0.56243098 0.32871494 0.00000683 -0.00000255 -0.00000800
0.64497405 0.64428174 0.92179209 0.00002413 -0.00000121 0.00005871
0.27622515 0.24792290 0.13172206 0.00000089 0.00000791 -0.00002185
0.65904802 0.64300936 0.49276057 0.00000457 -0.00000057 -0.00000023
0.36073387 0.61905354 0.54130459 0.00000044 0.00000478 0.00001178
0.16687514 0.30793440 0.41561306 0.00000086 -0.00000520 -0.00002379
0.50805706 0.73218882 0.32775402 0.00000520 0.00001375 -0.00001062
0.84501266 0.58567643 0.27562889 0.00000174 -0.00000075 -0.00000507
0.34894213 0.18070970 0.11919592 0.00001458 0.00000690 -0.00002401
0.43523198 0.63563609 0.82431960 -0.00005265 -0.00000060 0.00001380
0.23852824 0.37746149 0.57818300 -0.00001585 -0.00000759 0.00000494
0.37086120 0.78346717 0.45650327 -0.00003354 0.00002028 -0.00001115
0.26980594 0.53117901 0.35363603 -0.00000917 0.00000815 -0.00001690
0.28084436 0.35488865 0.20193382 -0.00002410 0.00001332 0.00000378
0.06502537 0.22640447 0.43908504 -0.00001205 -0.00004071 -0.00001509
0.24548541 0.53865010 0.37638903 -0.00002522 0.00001499 -0.00000717
0.43610793 0.62884623 0.80999345 -0.00004068 -0.00000167 0.00001982
0.27611619 0.54095882 0.48603073 -0.00002295 0.00000415 0.00000929
0.59624207 0.60949159 0.32814613 -0.00000045 -0.00001364 -0.00000635
0.27092725 0.33838928 0.22441056 -0.00002097 0.00001652 -0.00000556
0.16711280 0.37293920 0.53396994 -0.00000489 0.00002563 0.00002581
0.33429250 0.66959226 0.46097326 0.00000548 0.00000957 0.00000550
0.71160388 0.51880813 0.60185659 0.00001731 -0.00000493 -0.00000627
0.73448300 0.55962110 0.30824494 -0.00001402 -0.00002162 0.00000607
0.41912556 0.31404990 0.22196712 0.00004339 -0.00002226 -0.00000620
0.77203405 0.70046669 0.54933852 0.00001946 0.00000770 -0.00002158
0.54750675 0.75101411 0.63411665 0.00001027 0.00000050 0.00001041
0.64914376 0.61711967 0.63381547 -0.00000479 -0.00000969 0.00002650
0.45683619 0.57912678 0.59680408 -0.00000440 -0.00000692 -0.00000054
0.56574434 0.56166393 0.53493941 0.00001450 -0.00000184 0.00000099
0.46014702 0.53633708 0.55090082 -0.00000589 -0.00000951 0.00000045
0.58339936 0.58921033 0.51625311 -0.00000021 -0.00000119 -0.00000334
0.40401265 0.64216512 0.71282649 -0.00001877 -0.00001075 0.00001800
0.30110332 0.23010658 0.11871289 0.00001673 0.00000828 -0.00001199
0.29871732 0.59358764 0.46086341 -0.00002541 -0.00000961 0.00000261
0.54105061 0.59891641 0.86531967 0.00000738 -0.00002780 0.00002392
0.58216393 0.55465961 0.40978843 0.00002122 -0.00000303 -0.00000944
0.41538659 0.71276212 0.64208537 -0.00000856 0.00001673 0.00000076
0.50548232 0.63919836 0.88091385 -0.00001689 0.00001484 0.00003105
0.41596055 0.61999983 0.64479131 -0.00000668 -0.00001209 -0.00000474
0.73895121 0.56075621 0.60900426 0.00002400 0.00001886 0.00001822
0.71565336 0.59985846 0.52986288 0.00001710 -0.00001244 -0.00000598
0.66645217 0.65277803 0.38948742 0.00000383 -0.00000413 0.00000063
0.42973846 0.62902296 0.75343442 -0.00002241 -0.00000007 0.00001982
0.41785061 0.80011672 0.58741552 -0.00000569 0.00002054 0.00002687
0.31387571 0.56859791 0.37247673 -0.00001559 -0.00000714 -0.00000884
0.22967242 0.39232385 0.57555073 -0.00002924 -0.00001061 0.00001035
0.23900267 0.38577166 0.58400851 -0.00003215 -0.00001660 0.00000548
0.31047994 0.42051119 0.59354985 0.00001687 -0.00000461 0.00002358
0.68762052 0.53779560 0.61334115 0.00000956 -0.00002571 0.00000009
0.20342410 0.38272589 0.54374290 -0.00001853 0.00000407 0.00001253
0.73302871 0.68097395 0.52735853 0.00001235 0.00000509 -0.00000335
0.44805586 0.84612209 0.56240773 -0.00002129 0.00003651 0.00001772
0.22326948 0.53900188 0.33849049 -0.00000035 0.00001860 -0.00000607
0.35657880 0.74618554 0.52773857 -0.00002103 0.00001037 0.00001242
0.55916554 0.87201518 0.51701415 0.00000682 0.00004098 0.00000910
0.49528980 0.60187721 0.73948145 0.00000964 -0.00000103 0.00000423
0.15580235 0.36917362 0.53028500 -0.00002465 0.00001026 0.00002928
0.30191240 0.56286848 0.38717267 -0.00000752 0.00000411 -0.00000257
0.29879627 0.51351798 0.36303666 -0.00000074 -0.00000298 -0.00000512
0.26300576 0.27247763 0.23877534 -0.00000233 -0.00001874 0.00001775
0.22398503 0.24745874 0.14180136 -0.00001066 0.00000935 -0.00003458
0.76909125 0.61495417 0.34893268 0.00000852 -0.00000634 0.00000379
0.44523829 0.75747883 0.63007909 -0.00001344 0.00000628 0.00001510
0.31806254 0.21822044 0.10582896 0.00001940 0.00001938 -0.00001533
0.22572666 0.49098802 0.35381189 0.00000282 -0.00002091 -0.00000461
0.47471854 0.44300336 0.25832301 0.00001887 0.00000464 -0.00001319
0.55642092 0.85451543 0.55751395 0.00000833 0.00001189 0.00000097
0.27197400 0.49661881 0.44573250 -0.00001082 -0.00000484 -0.00000417
0.33511871 0.44394711 0.44279829 -0.00000551 -0.00000720 -0.00000344
0.75635743 0.71042418 0.51442051 0.00002253 -0.00000323 0.00000828
0.45060572 0.82634532 0.59046555 -0.00001442 0.00002767 0.00002569
0.11560192 0.25589845 0.39607054 0.00000371 -0.00001241 -0.00002450
0.21992774 0.44234020 0.50054991 -0.00001207 -0.00001002 -0.00000518
0.24911971 0.27134168 0.15302601 -0.00000881 -0.00000502 -0.00003008
0.25256956 0.39607143 0.59414184 0.00001278 0.00001479 0.00002868
0.47313139 0.86552125 0.54224491 -0.00000463 0.00001707 -0.00001934
0.59116644 0.67823964 0.84027249 0.00001307 -0.00000210 -0.00000419
0.34818628 0.68415266 0.44356102 -0.00001490 0.00000387 0.00000128
0.69531125 0.59032226 0.29845053 0.00000972 -0.00001568 0.00000025
0.53530318 0.70293510 0.80986130 -0.00000059 0.00002329 -0.00000663
0.33834293 0.29720220 0.16201480 -0.00000113 -0.00000492 -0.00001362
0.21391863 0.39203730 0.47506517 -0.00000226 0.00000018 -0.00000926
0.63987523 0.63507932 0.91916329 0.00000691 -0.00003693 0.00001413
0.25805277 0.51881152 0.53570127 -0.00002589 0.00001831 0.00001163
0.17300180 0.29923129 0.53826487 -0.00001053 0.00000134 0.00003062
0.58254743 0.64034629 0.30452228 -0.00000374 -0.00001792 -0.00001778
0.25974980 0.40281582 0.59866935 -0.00002608 -0.00001193 0.00002571
0.76085913 0.59402436 0.24927673 0.00000868 -0.00000235 -0.00002734
0.68262464 0.53348011 0.58082289 0.00000401 0.00000524 -0.00001050
0.37186757 0.29659477 0.25753370 0.00000868 -0.00001438 0.00001503
0.59144360 0.64267045 0.29407153 -0.00002071 -0.00001708 -0.00002835
0.76294392 0.70792413 0.56799304 0.00000739 -0.00000737 0.00002005
0.29281288 0.34143844 0.55085880 0.00002738 -0.00000740 0.00000401
0.35569766 0.67994273 0.55892271 -0.00002055 -0.00000717 0.00001663
0.27283105 0.39694396 0.60085791 0.00001168 -0.00001748 0.00003862
0.28930983 0.20125347 0.19508560 0.00001521 -0.00000553 0.00000972
0.33409002 0.35603058 0.15923761 -0.00001468 0.00000612 -0.00004321
0.52729160 0.59991592 0.62491071 0.00000293 -0.00000274 0.00001826
0.61431670 0.64325815 0.28719327 -0.00000790 -0.00000358 -0.00003091
0.78872126 0.65959024 0.34666425 0.00001684 0.00001409 0.00000474
0.38411233 0.60927969 0.33713067 -0.00000912 -0.00000536 -0.00002228
0.66493791 0.70172364 0.42497081 0.00000378 -0.00000095 0.00000205
0.91685277 0.52724528 0.31805569 0.00000855 -0.00000221 0.00002036
0.40447164 0.57965440 0.31966093 0.00000028 0.00001292 -0.00001593
0.32830912 0.50093693 0.30562818 -0.00001518 0.00000114 -0.00000840
0.82659835 0.66461277 0.31435701 0.00001984 0.00003867 -0.00000417
0.28155908 0.51608759 0.55889016 -0.00001286 0.00000917 0.00001503
0.54641628 0.63570648 0.62605441 -0.00000455 -0.00000552 -0.00000147
0.50529271 0.60582900 0.86973554 -0.00002370 -0.00003782 0.00003550
0.40678558 0.75644755 0.37400392 -0.00000824 0.00000102 0.00000240
0.16334550 0.16463159 0.47268263 0.00002135 -0.00001403 -0.00002004
0.17222449 0.31594428 0.41839972 -0.00000667 -0.00000528 -0.00001465
0.15368235 0.14879629 0.54937536 0.00007113 -0.00000175 0.00002852
0.39811164 0.82014143 0.46135589 -0.00002062 0.00003267 -0.00000548
0.67429554 0.68392193 0.37143001 0.00001747 0.00000019 0.00000002
0.62513810 0.83779389 0.53413290 0.00002399 0.00002858 0.00001519
0.81277579 0.76047736 0.52354574 0.00002579 0.00004774 -0.00002705
0.62953943 0.63638771 0.91850185 -0.00000119 -0.00003235 0.00001100
0.88217163 0.63369286 0.35321218 -0.00000216 0.00000068 0.00001372
0.41243351 0.68241191 0.69305480 -0.00001653 0.00000154 0.00001649
0.36307523 0.45776966 0.55289048 0.00000909 -0.00000673 0.00000993
0.12951799 0.54330713 0.30858898 -0.00004463 0.00001152 0.00003135
0.21255617 0.31119463 0.43339422 0.00001007 -0.00001840 -0.00001471
0.72337931 0.73537695 0.69810903 -0.00001815 -0.00001225 0.00002196
0.67008042 0.69706577 0.43211931 0.00000675 0.00000133 -0.00000946
0.32539463 0.48488882 0.33043599 -0.00001211 -0.00000445 0.00000285
0.52983713 0.53139955 0.53478837 0.00000652 -0.00002153 0.00000212
0.43539241 0.61173260 0.61443597 -0.00000181 -0.00000449 0.00000736
0.42176720 0.44673976 0.41349992 0.00000017 -0.00000810 0.00000061
0.32749748 0.46603864 0.27698615 -0.00001916 -0.00000347 -0.00001029
0.28352550 0.23334019 0.20801160 -0.00000382 -0.00001875 0.00000105
0.63381207 0.73007220 0.37603551 -0.00000003 -0.00001213 -0.00000471
0.77505314 0.72357750 0.53361988 0.00002611 -0.00000413 -0.00000444
0.23953375 0.22839150 0.21168621 -0.00000560 -0.00002131 0.00001131
0.53985810 0.83198714 0.59878600 0.00000508 0.00002645 0.00002637
0.36907238 0.13253973 0.10329884 0.00000530 -0.00007596 -0.00006945
0.23979972 0.49649268 0.53970110 -0.00001501 0.00002045 0.00001313
0.20530559 0.37573442 0.55024111 -0.00001449 0.00000907 0.00001861
0.66610640 0.65511000 0.26940781 -0.00002296 0.00002943 -0.00000968
0.16618876 0.35207799 0.54292697 -0.00002215 0.00000469 0.00002424
0.40741703 0.68111813 0.35681471 -0.00000724 -0.00000558 -0.00000168
0.53322518 0.63300729 0.63254398 0.00000380 0.00000001 0.00000361
0.45047531 0.85896564 0.53476268 -0.00001835 0.00004200 0.00000137
0.30796009 0.36678165 0.50523698 -0.00000586 -0.00001772 -0.00000398
0.44957447 0.61226708 0.81941557 -0.00001629 -0.00001945 0.00001868
0.52235228 0.82277447 0.60852295 -0.00000580 -0.00000155 0.00003384
0.57397044 0.61821616 0.86125982 0.00002066 -0.00000245 -0.00000358
0.53925234 0.66915387 0.65436870 -0.00000189 -0.00000309 0.00001209
0.60601425 0.68543446 0.90416270 0.00001197 0.00001484 0.00002961
0.44301879 0.65518206 0.83468372 -0.00003090 0.00001868 0.00002483
0.47436166 0.72409660 0.33149901 -0.00000833 0.00000465 -0.00002424
0.88108373 0.59687018 0.34369144 0.00001197 0.00000749 0.00001285
0.37571979 0.70279866 0.39306855 -0.00000863 0.00000220 -0.00000121
0.62747943 0.83467865 0.53479356 0.00002702 0.00000832 0.00001833
0.24530439 0.28640911 0.21952537 -0.00001487 -0.00000498 0.00000867
0.13387212 0.17423300 0.47261831 -0.00001083 -0.00002289 -0.00000409
0.44841531 0.68828547 0.80775762 -0.00004005 0.00002656 0.00000841
0.48180011 0.55791813 0.36762413 0.00000113 -0.00000372 0.00000543
0.22990750 0.27354836 0.17220646 -0.00002581 0.00000271 -0.00000959
0.45074552 0.63328701 0.84926552 -0.00004069 -0.00002349 0.00003492
0.32594544 0.20504650 0.15965886 0.00000349 -0.00001295 0.00000506
0.31373757 0.35978758 0.54994160 0.00001678 -0.00002063 -0.00000208
0.57328409 0.74572223 0.34249458 0.00000844 0.00000795 -0.00000853
0.45446479 0.59769982 0.60961342 -0.00000095 -0.00000093 0.00000754
0.35649213 0.17725302 0.12746404 0.00003189 0.00000333 0.00000334
0.55515802 0.86499965 0.44829264 0.00001723 0.00003724 0.00000482
0.56403267 0.53000194 0.47106197 0.00000384 -0.00002436 0.00000857
0.41171023 0.58872473 0.32861885 0.00000653 0.00000119 -0.00001170
0.71744394 0.56955111 0.29975119 -0.00001212 -0.00001444 -0.00000743
0.54777187 0.62046659 0.34849682 0.00000345 -0.00000614 -0.00000666
0.37259769 0.57187450 0.32091355 -0.00000485 0.00000008 -0.00001997
0.72772229 0.71332401 0.66256046 0.00003056 -0.00000170 0.00000307
0.35279179 0.74324620 0.51727837 -0.00002741 0.00000966 0.00001054
0.16994148 0.30368838 0.53893322 -0.00002884 -0.00002252 0.00000751
0.73479444 0.74577796 0.70652562 0.00005535 -0.00000496 0.00000652
0.15776622 0.54599851 0.29155341 0.00000235 -0.00000236 -0.00004495
0.61018133 0.67184705 0.86274147 0.00001091 0.00000579 -0.00000115
0.47275642 0.86177713 0.44732228 0.00000459 0.00000851 -0.00002259
0.67155272 0.73375720 0.65906090 -0.00000945 0.00000786 0.00001630
0.45376384 0.67923141 0.32815728 0.00000239 0.00002220 -0.00001384
0.65406245 0.81484348 0.50942975 0.00003216 0.00002209 -0.00000513
0.37573010 0.63465714 0.57452124 -0.00000601 -0.00001847 -0.00000183
0.45808539 0.47809464 0.48798943 0.00000905 -0.00000575 0.00001634
0.58445978 0.63508189 0.92116493 0.00001530 0.00002548 0.00002927
0.54096484 0.77916110 0.62210268 0.00000714 0.00000373 0.00001540
0.55061519 0.69792026 0.81864339 0.00001012 0.00001238 -0.00000658
0.47252476 0.59187943 0.69513708 0.00002289 -0.00000080 0.00001362
0.39818197 0.36970815 0.18804350 -0.00000338 0.00000782 -0.00000604
0.36555475 0.62315279 0.35072926 -0.00000457 0.00002049 -0.00001745
0.59537387 0.63721472 0.29513621 -0.00000117 -0.00001568 -0.00002483
0.32358006 0.47063899 0.29003224 -0.00002620 -0.00000512 -0.00000012
0.51656538 0.57819849 0.82606560 -0.00000607 -0.00002319 0.00001282
0.17651941 0.35560846 0.43243504 0.00000023 0.00000968 -0.00001372
0.16477144 0.15405215 0.48785990 -0.00000845 -0.00005835 0.00000010
0.58929181 0.70755863 0.32552764 -0.00000021 0.00001599 -0.00000870
0.41652852 0.82962263 0.54021841 -0.00002744 -0.00001160 -0.00000152
0.39504787 0.75926167 0.38569614 -0.00002077 0.00001538 -0.00001740
0.40828785 0.62323695 0.70448798 -0.00001237 -0.00001286 -0.00001153
0.38327497 0.35572946 0.27746746 -0.00000601 -0.00001207 0.00000253
0.49680924 0.54256922 0.39201498 -0.00000175 -0.00000567 -0.00000152
0.49357131 0.60317785 0.62612647 0.00000213 -0.00000095 0.00000673
0.59956586 0.60875118 0.56650192 -0.00000228 -0.00000216 -0.00000076
0.19115102 0.27148670 0.46880126 -0.00000489 -0.00001680 0.00000340
0.28895724 0.33926955 0.55391997 -0.00000505 -0.00003120 0.00001196
0.52301979 0.79708552 0.61999720 -0.00000615 0.00000486 0.00002044
0.35776708 0.69302827 0.42020741 -0.00001481 0.00000428 -0.00000958
0.54439837 0.85092056 0.41891792 0.00001645 0.00001672 -0.00002210
0.65029770 0.68240845 0.63963842 0.00000068 0.00001114 0.00001031
0.70526701 0.60363257 0.34733343 0.00001062 -0.00000603 0.00000108
0.71995431 0.51717031 0.61548263 -0.00000017 -0.00002413 -0.00000552
0.33833435 0.68442982 0.48170322 -0.00002097 -0.00000742 -0.00000096
0.31174970 0.22483356 0.11660832 0.00001569 0.00000885 -0.00001027
0.54834753 0.60102868 0.35910204 0.00000710 -0.00000635 -0.00000920
0.25298738 0.35813859 0.47701788 0.00000072 -0.00000601 -0.00000868
0.66012049 0.64632022 0.49243450 0.00000645 0.00000226 0.00000192
0.42978996 0.44975033 0.39788169 0.00000344 -0.00001208 0.00000258
0.15931481 0.55337864 0.32684547 -0.00002408 0.00003179 0.00002018
0.58840990 0.82899380 0.41144684 0.00001670 0.00003264 -0.00002107
0.08233637 0.25844744 0.47495195 -0.00001339 0.00001589 0.00001536
0.05753971 0.23329732 0.42782092 -0.00000918 -0.00006249 -0.00002434
0.39870018 0.62146693 0.34028450 0.00000232 0.00000612 -0.00001709
0.53109574 0.87597382 0.52440798 -0.00000984 0.00004310 0.00001516
0.18437059 0.26973471 0.45797640 -0.00000676 -0.00002093 -0.00000021
0.26516950 0.31743455 0.55513054 0.00001657 -0.00003144 0.00000537
0.45892185 0.72743404 0.33631301 -0.00000801 0.00000503 -0.00002135
0.13024552 0.23115669 0.49622068 0.00000234 -0.00000695 0.00000677
0.59737462 0.85742825 0.48340452 -0.00000746 0.00003281 -0.00001445
0.20500702 0.26071677 0.16848637 -0.00002604 0.00002358 -0.00001677
0.78977484 0.65663713 0.35090256 0.00001732 0.00001311 0.00000745
0.68951058 0.60322595 0.35366517 0.00001050 -0.00000900 0.00000457
0.53227288 0.70299685 0.83862346 0.00001663 0.00003462 0.00001001
0.31509745 0.27871668 0.25966746 0.00000423 -0.00001956 0.00001471
0.65883523 0.80626565 0.53888345 -0.00000713 0.00000932 0.00002574
0.79796576 0.72877842 0.53482270 0.00000917 -0.00000744 -0.00001867
0.46000546 0.68033391 0.76731783 -0.00000692 0.00000803 0.00001545
0.15667403 0.31031093 0.41490525 -0.00000148 -0.00000788 -0.00001564
0.51297659 0.84837931 0.58151448 -0.00001701 0.00002098 0.00001728
0.55281579 0.55286133 0.51816553 0.00000437 -0.00000365 0.00000414
0.62739629 0.72833657 0.62151498 0.00000103 0.00000246 0.00000657
0.81958199 0.59827381 0.24979836 0.00001702 -0.00002822 -0.00001467
0.63352203 0.62788016 0.62548560 -0.00000171 -0.00000800 -0.00002200
0.78567982 0.55671698 0.32201430 0.00001548 0.00002059 0.00002960
0.68962216 0.63418269 0.50212175 -0.00000404 -0.00000742 0.00000103
0.21694291 0.28982982 0.53133428 -0.00000523 -0.00002307 0.00000357
0.42400816 0.81377530 0.40439615 -0.00002198 0.00002820 -0.00002110
0.36313874 0.75624937 0.53881824 -0.00001649 0.00002089 0.00001449
0.51258880 0.59429115 0.85861474 -0.00002742 -0.00002545 0.00001397
0.77319652 0.60997373 0.34771866 0.00000905 -0.00000796 0.00000530
0.74905962 0.59387761 0.25312379 0.00001997 -0.00002070 -0.00002228
0.43460912 0.58554685 0.58777583 0.00000158 -0.00000660 0.00000421
0.39074948 0.75556642 0.38826141 -0.00002191 0.00001200 -0.00001824
0.43449497 0.56146491 0.56162786 -0.00000276 -0.00000176 0.00000630
0.40485686 0.30468100 0.23078863 -0.00000192 -0.00003450 -0.00000734
0.22525223 0.44697398 0.48668790 -0.00001989 0.00000300 -0.00000476
0.67766905 0.74727088 0.59274769 0.00000339 0.00000796 -0.00000299
0.11014018 0.19957103 0.44420877 -0.00001244 -0.00002529 -0.00001134
0.26225764 0.49626276 0.36050308 0.00000005 -0.00000864 -0.00000767
0.66337377 0.70057654 0.35685849 0.00001099 0.00001205 -0.00000316
0.68210816 0.58147413 0.32306701 0.00000134 -0.00002860 -0.00000407
0.45257816 0.45007980 0.35522065 0.00000800 -0.00001240 0.00000245
0.33370996 0.38118416 0.54372919 0.00001247 -0.00002352 0.00000199
0.69311577 0.75494868 0.68791652 -0.00001443 0.00003526 0.00000866
0.14745700 0.34218916 0.53457391 -0.00002268 -0.00000213 0.00002874
0.80869281 0.66789699 0.27403563 -0.00000063 0.00004246 -0.00000438
0.67496312 0.75339842 0.58646059 0.00000272 -0.00000006 0.00001117
0.29603022 0.16538832 0.15844485 -0.00000641 -0.00002392 -0.00001069
0.62005299 0.83929014 0.53879422 0.00001772 0.00002357 0.00002244
0.45276517 0.58062905 0.33997303 0.00000458 -0.00000153 -0.00000944
0.43036392 0.33710834 0.24378495 0.00000644 -0.00002163 0.00000739
0.64679897 0.71035987 0.33041799 0.00001334 0.00001918 -0.00000886
0.30716991 0.48474124 0.41802391 -0.00000609 -0.00000197 -0.00000376
0.60589159 0.60507309 0.92491502 0.00000443 -0.00004308 0.00004727
0.51341498 0.86694890 0.54723048 -0.00003845 0.00001562 0.00000908
0.30049759 0.34740984 0.55565566 0.00000713 -0.00003031 0.00000885
0.44982412 0.36407909 0.26634321 0.00001138 -0.00002600 0.00001265
0.62315196 0.75802362 0.37948623 0.00001807 0.00001467 -0.00000987
0.42689177 0.81880474 0.40792838 -0.00001864 0.00003051 -0.00002068
0.35966313 0.45014414 0.55847228 0.00001902 -0.00000726 0.00001265
0.21650450 0.49147624 0.35396975 -0.00001815 -0.00002799 -0.00000597
0.42042363 0.36982223 0.30528843 0.00000976 -0.00001482 0.00001815
0.24466005 0.38117644 0.58696419 -0.00001636 -0.00003183 0.00001196
0.59941828 0.60123289 0.89963967 0.00002392 -0.00003118 -0.00000424
0.34932992 0.71795279 0.53342342 -0.00001488 0.00000143 0.00002350
0.40573111 0.64763802 0.72993922 -0.00003170 -0.00000145 0.00004783
0.47888738 0.72566152 0.33032018 -0.00001272 0.00000412 -0.00002619
0.66909808 0.80233878 0.53275073 0.00002426 0.00001895 0.00001070
0.43372539 0.36685458 0.28901643 0.00000082 -0.00002479 0.00000317
0.52770597 0.86814404 0.44057101 0.00000034 0.00003440 -0.00001635
0.19389135 0.34534901 0.43138921 0.00000140 -0.00000227 -0.00001544
0.28016403 0.45539829 0.45120284 -0.00000336 -0.00000590 -0.00000113
0.43105459 0.57397306 0.58174014 -0.00000115 -0.00000584 0.00001103
0.31419230 0.55622023 0.36543721 -0.00000955 -0.00000317 -0.00000442
0.20969146 0.25680876 0.15670750 -0.00002092 0.00001688 -0.00002791
0.70710218 0.68852484 0.65648097 -0.00000298 0.00001686 0.00001820
0.63499260 0.60208738 0.43861407 0.00001052 0.00000327 0.00000693
0.31300488 0.42634100 0.45860699 -0.00000186 -0.00000866 -0.00000684
0.32523590 0.38579741 0.19712926 -0.00001492 0.00001927 -0.00000149
0.12122498 0.29327106 0.40801930 -0.00001605 -0.00001447 -0.00001215
0.20356137 0.28438348 0.52946651 -0.00000655 -0.00004002 -0.00000373
0.69313288 0.55251640 0.54970229 0.00000055 -0.00000970 0.00001511
0.43784362 0.59998971 0.66617501 -0.00000918 -0.00001649 -0.00000333
0.22434963 0.21370502 0.20623304 0.00000041 -0.00001418 0.00002884
0.57475203 0.85960233 0.54534990 -0.00000073 0.00003879 0.00001256
0.54540735 0.74380040 0.63826829 0.00001022 -0.00000475 0.00001026
0.49211448 0.49405611 0.45757318 0.00001399 -0.00001295 0.00000175
0.38822711 0.81108224 0.52514243 -0.00002716 0.00002842 0.00001049
0.23933730 0.20927881 0.12900750 -0.00002365 -0.00004579 -0.00000085
0.76929629 0.56281275 0.27227083 0.00000683 -0.00002563 -0.00001227
0.30822262 0.62371045 0.46256736 -0.00002550 0.00000906 0.00000372
0.40205565 0.63454652 0.59848052 -0.00000555 -0.00000179 0.00001016
0.10922302 0.31357285 0.41257846 0.00000215 0.00000729 -0.00002921
0.49695253 0.69897819 0.80776191 -0.00000014 0.00001405 0.00000550
0.70208824 0.72186077 0.51706821 0.00000248 0.00000394 -0.00000002
0.25711760 0.49287042 0.36495933 -0.00000132 -0.00001241 -0.00000630
0.21843490 0.43032449 0.54995197 -0.00002419 0.00000503 -0.00000009
0.09651582 0.20853840 0.44491404 -0.00001506 -0.00002379 -0.00000909
0.66440165 0.70654964 0.66834140 -0.00000722 -0.00000038 0.00001025
0.66286761 0.61615616 0.62957633 0.00000398 -0.00000414 0.00001452
0.59129256 0.83313000 0.58155221 0.00001547 0.00003443 0.00002230
0.24523832 0.37251279 0.58264434 -0.00001666 -0.00000440 0.00001291
0.67552501 0.69126171 0.45331940 0.00000722 -0.00000010 -0.00000138
0.37963724 0.76127440 0.57308674 -0.00002551 0.00001631 0.00001841
0.53517795 0.61813724 0.79423022 0.00001108 -0.00000768 0.00000895
0.71453202 0.65501732 0.50358367 0.00000879 0.00000005 -0.00001058
0.44074088 0.67389667 0.81092006 -0.00003629 0.00002169 0.00001188
0.62106025 0.80958599 0.43468547 0.00001482 0.00001892 0.00000312
0.92056173 0.54677582 0.33922747 0.00000181 -0.00000553 0.00002118
0.19312604 0.31863740 0.42403308 -0.00000475 -0.00000098 -0.00001985
0.40735695 0.43469149 0.36962402 -0.00000171 -0.00001279 -0.00000359
0.46542603 0.38408408 0.26487011 0.00000739 -0.00003365 0.00000177
0.19291069 0.33284605 0.42555854 -0.00000597 0.00000353 -0.00001859
0.34486684 0.27294090 0.17584763 -0.00000618 -0.00000066 -0.00001401
0.50390369 0.86156952 0.42602783 -0.00000020 0.00004137 -0.00002191
0.38730481 0.45301574 0.51283759 0.00001046 -0.00000831 0.00000740
0.28561035 0.36039072 0.58555114 0.00000596 -0.00003965 0.00001933
0.36815006 0.44787657 0.37971616 -0.00000354 -0.00000746 0.00000307
0.20973693 0.36642987 0.45134097 -0.00000135 0.00000314 -0.00000718
0.11029976 0.30742562 0.50575173 -0.00004180 -0.00000987 0.00001191
0.26908267 0.21819386 0.11023456 -0.00000461 0.00001392 -0.00003449
0.90925568 0.64420450 0.33224627 0.00003281 0.00004049 0.00002377
0.13438345 0.23329131 0.42005816 0.00001000 -0.00001168 -0.00000997
0.42702219 0.67863691 0.74231011 -0.00003173 0.00000800 0.00004702
0.46241546 0.86936748 0.48228148 -0.00003995 0.00001669 -0.00000745
0.13742492 0.36885789 0.51149231 -0.00003486 0.00000509 0.00001783
0.11911954 0.19790658 0.42233002 -0.00001774 -0.00004086 -0.00003322
0.29326159 0.55931914 0.41453892 -0.00001074 -0.00000920 -0.00000519
0.18458422 0.23558721 0.19866243 -0.00000794 0.00003288 0.00002330
0.33467603 0.41318938 0.27643365 -0.00001226 -0.00000258 0.00000403
0.59700400 0.61582762 0.57654774 -0.00000358 -0.00000054 0.00000209
0.58491451 0.68484676 0.64257008 0.00000053 0.00000439 0.00000922
0.53223425 0.63911164 0.89195836 -0.00004191 0.00000267 0.00001122
0.93677455 0.54442501 0.32622516 0.00006098 -0.00001348 -0.00000696
0.17933953 0.33858836 0.42423126 -0.00000086 -0.00000325 -0.00001861
0.81684679 0.74354732 0.54932052 0.00003718 0.00000973 0.00004395
0.33593464 0.17415665 0.14299907 0.00000510 -0.00000420 0.00001269
