0.172074 -0.310443 0.126149
-0.136448 -0.069358 -0.034261
-0.140931 0.051129 -0.040220
0.329122 -0.262473 0.212829
-0.127967 -0.115575 -0.054342
-0.303257 0.199199 -0.060774
-0.125649 -0.003767 -0.101974
0.102125 -0.128989 0.173522
0.097320 -0.249983 0.252250
0.045193 -0.309694 0.051611
0.243372 -0.199451 0.172504
0.097229 -0.345800 0.011145
-0.129949 -0.040801 -0.102471
-0.145329 -0.050669 -0.019952
0.267745 -0.294147 0.230543
0.260607 -0.213907 0.200196
-0.270751 0.153063 -0.096959
0.353650 -0.304334 0.160833
-0.142741 0.221377 -0.069412
-0.390870 0.340904 -0.105937
0.134172 -0.147886 -0.146108
-0.102647 0.033673 -0.098701
-0.116344 -0.164886 0.001965
-0.143691 0.223959 -0.075375
-0.072793 0.167453 -0.088310
0.307543 -0.321548 0.099597
0.206078 -0.305067 0.159310
0.116174 -0.324153 -0.027674
-0.316944 0.314755 -0.098080
-0.080900 0.159805 -0.060378
0.195316 0.067739 -0.150036
-0.371035 0.342835 -0.089717
-0.140471 -0.018364 -0.034762
0.040341 -0.202501 -0.129534
0.192651 -0.227178 0.287815
0.123340 -0.281358 -0.084563
-0.241727 0.083301 -0.083544
-0.299802 0.262363 -0.060270
0.119471 -0.304126 -0.033924
-0.306563 0.188324 -0.048152
-0.143711 0.134049 -0.087798
0.203425 0.069310 -0.072091
-0.247480 0.081414 -0.063260
-0.326848 0.271494 -0.089303
0.184544 -0.070011 0.037960
0.156152 -0.147106 0.197860
0.010195 -0.191823 0.135902
-0.237228 0.067446 -0.089296
0.296219 -0.171752 0.159464
-0.104102 0.076744 -0.098075
0.305334 -0.267838 0.225704
-0.390644 0.376276 -0.129430
0.072217 -0.160624 0.180608
-0.192264 0.014264 -0.067823
-0.209313 0.202255 -0.046222
0.145798 -0.124913 0.186073
-0.235420 0.069870 -0.093239
-0.093982 -0.068855 0.059534
0.162970 -0.177252 0.197895
-0.178005 0.178120 -0.107405
0.001073 -0.089782 -0.162798
-0.119830 -0.149620 -0.017581
0.350114 -0.241159 0.159856
-0.079018 -0.054620 -0.230059
-0.071114 0.163721 -0.080300
-0.020973 -0.242691 0.015090
-0.193529 0.080360 -0.088683
0.008360 -0.233735 0.124085
0.064559 -0.224935 0.204081
0.329384 -0.294230 0.076618
-0.084106 0.021801 -0.088438
0.256047 -0.302982 0.095399
-0.038204 0.015359 -0.060338
-0.105770 0.043876 -0.088100
0.120069 -0.225646 -0.023728
-0.041346 0.101409 -0.058002
0.104932 -0.353678 0.045068
-0.326702 0.283079 -0.098440
0.118360 -0.182878 0.272700
0.275467 -0.237507 0.079750
0.227707 -0.215389 0.139242
-0.028128 -0.165974 0.087457
-0.082155 0.037157 0.019750
0.043857 -0.092496 -0.091120
0.148104 -0.162659 0.080468
-0.210646 0.026635 -0.070358
-0.059632 -0.004181 -0.092544
-0.179166 0.186818 -0.109396
0.102783 -0.193624 0.293761
0.342026 -0.210414 0.151482
0.117296 -0.245619 -0.077360
0.049193 -0.099962 -0.166575
0.298090 -0.248454 0.229515
-0.099087 0.148314 -0.119195
0.005764 -0.270293 0.039573
-0.139844 -0.057049 -0.034672
0.142045 -0.246379 0.188849
0.146109 -0.326301 0.048729
0.034478 -0.066406 0.027593
0.062663 -0.156111 0.174738
-0.165422 0.175384 -0.048989
-0.114113 -0.141761 -0.032131
-0.130529 0.116168 -0.104217
0.134355 -0.131560 0.075297
0.195633 -0.104301 0.098509
0.195562 -0.084159 0.069596
0.104778 -0.141454 0.182942
-0.233353 0.122457 -0.086070
0.059536 -0.110623 -0.046518
-0.079749 -0.211424 0.024757
0.144434 -0.041124 0.056531
0.063989 -0.295688 -0.018115
0.172855 0.042225 -0.128752
0.361697 -0.275521 0.180166
-0.127300 -0.117977 -0.045427
-0.088926 0.140786 -0.114153
0.142703 -0.217152 -0.047078
0.306914 -0.239149 0.227016
-0.095315 0.105395 -0.020897
0.150269 -0.180940 0.085702
0.273911 -0.179759 0.163811
0.216888 -0.213327 0.121714
-0.146927 0.144192 -0.077418
-0.312575 0.285841 -0.059995
-0.106907 -0.173277 -0.010392
0.315000 -0.244271 0.220025
-0.168949 0.201613 -0.105689
-0.257745 0.265669 -0.094448
0.182138 -0.018371 -0.030044
0.100710 -0.253599 0.182900
-0.140317 0.057204 -0.087812
-0.079868 -0.113116 0.053173
-0.224424 0.193011 -0.061473
0.083830 -0.162628 0.019703
-0.248666 0.096547 -0.043533
0.040187 -0.076822 0.064257
-0.194669 0.103797 -0.066153
0.071808 -0.334390 0.008243
-0.063128 0.089745 -0.093526
0.139914 -0.243428 0.297950
-0.306661 0.277498 -0.058399
0.016863 -0.185159 0.145025
0.075236 -0.103461 -0.109112
0.357414 -0.256131 0.162950
-0.138931 0.140184 -0.058759
0.140061 -0.131385 0.101337
0.190775 -0.156731 0.163213
-0.297586 0.227585 -0.061059
0.353774 -0.251218 0.219396
0.297693 -0.346251 0.196035
-0.167554 0.157483 -0.094112
-0.072593 -0.146647 0.035154
-0.095762 -0.080013 -0.147118
0.060851 -0.139944 -0.014445
0.154403 -0.070817 0.120531
0.130445 -0.141889 0.036487
0.089303 -0.220985 0.305124
-0.009329 -0.151923 0.120891
-0.073079 -0.069996 -0.218327
-0.081261 -0.086667 -0.132602
0.214308 -0.257341 0.191962
0.370985 -0.287828 0.131869
-0.267967 0.118351 -0.082830
-0.094543 0.034850 0.019032
0.225942 -0.318640 0.165148
0.163416 -0.184767 0.111917
-0.120193 -0.025881 0.048460
-0.173917 0.240148 -0.085494
-0.132458 -0.073899 -0.040447
0.037257 -0.059708 -0.002560
0.135852 -0.233562 -0.062049
0.326740 -0.238641 0.203540
0.295123 -0.297905 0.066939
0.116764 -0.142177 -0.120298
0.345126 -0.312137 0.163897
-0.257078 0.281761 -0.085898
0.350159 -0.274329 0.101444
0.338200 -0.187763 0.131718
-0.059026 0.071432 -0.086620
-0.246408 0.126895 -0.063974
-0.058355 0.133304 -0.082554
-0.122095 -0.133373 -0.044081
0.152737 -0.228848 0.194769
0.186606 0.079488 -0.146026
-0.145332 -0.013101 0.016533
0.080805 -0.103608 -0.123822
0.077704 -0.196821 0.004196
0.144288 -0.175687 -0.181826
-0.129031 0.193983 -0.058609
-0.107420 0.034634 -0.103428
-0.026347 -0.020372 0.051502
0.354675 -0.243275 0.109099
-0.214495 0.208358 -0.045586
0.157975 -0.131025 0.191303
-0.145348 0.067559 -0.058391
0.083089 -0.106180 0.069176
-0.165170 0.005877 -0.065420
0.363715 -0.288189 0.220170
0.166218 -0.081224 0.041291
0.357192 -0.275664 0.115051
0.002669 -0.213533 0.121264
0.111813 -0.208714 -0.138185
0.055174 -0.091771 0.033693
0.348789 -0.223163 0.143138
0.120557 -0.282710 -0.039107
0.059217 -0.102397 -0.021677
-0.183565 0.020602 -0.065889
-0.260645 0.176920 -0.071254
0.164012 -0.225494 -0.008425
-0.179285 0.222015 -0.046891
0.348393 -0.260710 0.180679
0.144832 -0.164959 0.069598
0.031622 -0.082807 -0.093218
-0.090608 0.047317 -0.091645
0.114426 -0.188981 0.239744
0.137624 -0.157872 -0.137446
0.305524 -0.322521 0.102133
0.074250 -0.179775 0.187929
0.055353 -0.226764 0.180602
-0.003189 -0.230718 -0.004943
0.188793 0.068107 -0.146761
0.037649 -0.076359 0.070664
0.144820 -0.193934 0.241642
-0.064425 -0.127631 0.057452
0.151044 -0.031536 0.053344
0.207340 0.019405 -0.038345
0.094783 -0.196286 0.230527
0.122538 -0.224207 0.206765
0.091293 -0.232407 0.301227
0.209644 0.067563 -0.101289
0.135352 -0.160666 0.042596
0.091255 -0.180718 0.021508
-0.030006 -0.136054 -0.140368
0.299979 -0.290604 0.228781
0.187185 -0.100454 0.146709
-0.176889 0.225463 -0.094945
-0.082423 -0.107463 0.054226
-0.239335 0.073734 -0.053855
-0.204480 0.237363 -0.048654
0.244141 -0.332378 0.112535
-0.055564 -0.159373 -0.110499
0.172051 -0.242506 0.271230
0.071014 -0.103949 -0.139735
0.197806 -0.084648 0.100150
-0.220067 0.238201 -0.096910
0.072985 -0.144703 -0.084085
0.021818 -0.047936 -0.029883
0.338639 -0.259300 0.073222
-0.215534 0.042580 -0.090936
-0.065266 0.140359 -0.054733
-0.132405 0.031106 -0.004139
0.207137 -0.003093 -0.015844
0.156483 -0.235784 0.235594
0.049355 -0.155938 -0.070710
0.385170 -0.297586 0.191434
-0.310798 0.293413 -0.101925
0.068655 -0.152628 -0.006224
0.146419 -0.191320 -0.167895
-0.018486 -0.190301 0.090622
-0.124092 -0.057506 0.042609
0.249379 -0.323690 0.095562
0.146065 -0.202157 0.000056
0.282775 -0.250373 0.228206
0.179471 0.080693 -0.133150
-0.257438 0.098815 -0.058067
-0.009373 -0.040438 -0.078703
0.232194 -0.336622 0.130391
-0.074078 -0.015854 0.053888
0.141758 -0.254618 -0.063173
0.128940 -0.222945 0.037038
0.199331 -0.197930 0.003448
0.088218 -0.298473 -0.103505
-0.062051 0.144465 -0.070761
0.356237 -0.244720 0.105205
0.343848 -0.191769 0.137980
-0.093110 -0.198277 0.035731
0.122071 -0.160148 0.195323
-0.113656 0.003110 0.038308
0.057134 -0.150018 0.168017
0.367144 -0.243344 0.140402
0.136442 -0.333612 0.108637
0.215992 -0.249034 0.187209
-0.301220 0.181826 -0.061435
-0.348265 0.281301 -0.089309
0.149728 -0.169375 -0.156931
-0.044252 -0.059864 -0.159484
-0.004122 -0.182220 -0.064399
0.318755 -0.302991 0.076088
-0.280051 0.205081 -0.054858
-0.154830 0.199910 -0.046802
0.024850 -0.202725 0.146996
-0.115790 -0.082060 -0.075687
-0.078641 -0.191234 0.052833
0.154703 -0.197065 -0.010735
-0.088982 -0.054821 -0.172048
0.026342 -0.054263 0.016682
-0.075049 -0.210468 0.043621
-0.091407 -0.200344 0.036581
0.115227 -0.111564 0.127798
-0.002936 -0.020386 0.020898
-0.135958 -0.052264 0.029190
-0.138282 0.008584 -0.002530
-0.230644 0.051689 -0.067241
-0.037026 -0.044404 -0.243237
-0.183219 0.006391 -0.094745
0.027914 -0.114960 0.126371
0.069541 -0.267222 -0.072092
0.296022 -0.341322 0.210345
0.214926 -0.259325 0.195872
0.058736 -0.120405 -0.082625
0.079630 -0.265986 -0.048230
0.182172 0.013067 0.017765
0.140213 -0.097499 0.151612
0.207058 -0.301084 0.173627
-0.052336 -0.064915 -0.243008
0.329352 -0.222487 0.109251
0.223067 -0.281218 0.082387
-0.342629 0.335369 -0.109569
0.173806 -0.232787 0.316501
-0.115808 -0.039085 0.051672
0.086942 -0.210678 -0.163898
-0.128042 -0.115908 -0.034177
0.106253 -0.280413 -0.094991
-0.053372 -0.158473 -0.113720
0.266259 -0.321180 0.223045
0.059063 -0.097058 0.105840
-0.068277 -0.146254 -0.113089
0.141543 -0.047618 0.029045
0.120815 -0.317634 -0.021579
0.199703 0.050770 -0.122894
0.277684 -0.197992 0.132820
0.153949 -0.237239 0.312353
-0.364599 0.294283 -0.086330
0.203019 -0.221179 0.123188
-0.148531 0.220043 -0.060724
-0.121879 0.047416 -0.089107
0.180672 0.053306 -0.095318
-0.073333 -0.194353 -0.013897
-0.019183 -0.219029 0.096007
0.010218 -0.045458 -0.059955
0.282761 -0.205188 0.198995
0.146788 -0.158550 0.199352
-0.091364 -0.057949 -0.171923
0.113694 -0.110498 0.142076
0.357282 -0.297782 0.122985
0.128970 -0.273447 -0.079565
0.058254 -0.292296 -0.049780
-0.383857 0.355166 -0.167130
-0.136618 0.014519 -0.010538
-0.131011 0.207916 -0.099987
0.038888 -0.084947 -0.099685
0.132606 -0.251614 0.188634
0.165951 -0.286928 0.098617
0.089654 -0.252839 0.256084
0.156836 0.002807 -0.012786
0.008937 -0.219229 -0.013099
0.190825 -0.303455 0.153974
0.125287 -0.324792 0.124582
-0.068555 -0.182236 0.061316
0.271362 -0.356101 0.125885
0.043521 -0.078917 0.057958
-0.169271 0.209073 -0.101340
0.021703 -0.077967 -0.086393
-0.165863 -0.008109 -0.094637
-0.077422 -0.055800 -0.123689
-0.113538 -0.084171 -0.078474
0.118484 -0.249677 0.205402
-0.062045 0.096455 -0.015146
0.075138 -0.261531 0.162190
-0.085644 0.041736 -0.090458
-0.089752 0.109348 -0.022668
0.253482 -0.341775 0.112592
0.030880 -0.203101 -0.020348
0.088498 -0.203120 -0.114899
0.350894 -0.274798 0.177169
-0.028724 0.034983 0.003032
0.137922 -0.207954 -0.024363
0.280380 -0.306193 0.233555
0.195456 -0.114687 0.142863
0.386863 -0.286611 0.189315
-0.360610 0.285813 -0.082941
-0.136647 0.197151 -0.107901
0.082004 -0.211073 -0.158173
0.056586 -0.136774 0.158095
-0.133081 0.028164 -0.096790
-0.117261 -0.159135 0.024667
-0.001948 -0.086664 0.094560
0.175543 -0.299298 0.107577
-0.062694 -0.095412 -0.126559
0.009389 -0.089176 0.099656
-0.009811 -0.052296 0.064531
0.250154 -0.199905 0.162418
0.134728 -0.078028 0.076870
-0.296448 0.199595 -0.072773
-0.261101 0.106421 -0.080776
-0.152980 0.214429 -0.097571
-0.130578 -0.084521 0.000002
0.121718 -0.293111 0.157539
0.161083 -0.218938 0.195692
0.316394 -0.262103 0.077808
-0.050498 -0.186122 -0.052160
0.135477 -0.073990 0.066553
0.129626 -0.346990 0.042579
0.324425 -0.177053 0.149568
-0.076267 0.030264 -0.087998
-0.035995 0.027455 0.017423
0.035508 -0.078377 -0.062216
-0.368331 0.323209 -0.137875
0.012776 -0.204069 0.132707
0.255327 -0.215859 0.196312
0.162602 -0.180034 0.115400
0.203103 0.049531 -0.048400
0.224324 -0.220452 0.076774
-0.038991 0.094081 -0.060733
0.191453 -0.039227 -0.001550
0.040610 -0.219572 -0.003690
0.287596 -0.196893 0.179583
-0.074464 -0.076310 -0.116730
-0.033855 -0.029997 -0.089101
0.077033 -0.283779 0.014164
0.370351 -0.307172 0.226869
-0.091077 -0.109881 0.040540
0.106228 -0.260743 -0.088053
0.147328 -0.210201 0.008951
-0.096135 -0.193719 0.029151
-0.062408 0.003154 -0.089124
-0.012710 -0.083238 -0.166065
-0.123120 -0.098556 0.004158
0.054708 -0.169936 -0.027887
0.077211 -0.200403 -0.107026
-0.022752 -0.002594 0.031566
0.050402 -0.291479 0.033972
-0.105032 0.096141 -0.016971
-0.085443 -0.077773 -0.205881
0.047034 -0.155990 -0.051014
-0.255503 0.157741 -0.084956
0.095538 -0.105791 0.103058
0.048989 -0.312846 0.101134
-0.015537 -0.021530 0.044297
0.206688 -0.007578 -0.015995
0.056981 -0.167345 -0.040701
0.155261 -0.198855 0.205664
0.198686 -0.225130 0.130859
0.027989 -0.067730 -0.062760
0.093154 -0.277912 -0.097369
0.060932 -0.127966 -0.192424
-0.210458 0.184193 -0.096360
0.020406 -0.181762 0.148695
0.122071 -0.121339 0.104235
-0.094676 -0.168807 0.042447
-0.008495 -0.137155 -0.155218
0.293975 -0.283396 0.077504
0.068344 -0.186720 -0.188465
0.189702 -0.161659 0.149703
-0.175919 0.239078 -0.087548
0.157436 -0.122683 0.094983
-0.259231 0.234997 -0.051678
-0.102697 0.106885 -0.108928
0.067476 -0.312251 -0.088266
-0.081543 0.181187 -0.097760
-0.013824 -0.003916 -0.003635
0.230478 -0.225184 0.185472
0.103496 -0.279613 -0.006804
0.164616 -0.179081 0.121706
0.136359 -0.213110 -0.005132
-0.046784 -0.004380 -0.074828
-0.218079 0.035152 -0.080383
-0.053495 -0.164530 0.052619
-0.306461 0.183982 -0.048798
-0.127728 -0.023440 0.043785
-0.016270 0.003531 -0.008884
0.209088 -0.304243 0.169040
-0.237143 0.258826 -0.053973
0.076425 -0.335608 0.098630
0.321090 -0.318050 0.231153
0.386518 -0.295325 0.192031
-0.039175 -0.070290 -0.109698
-0.002992 -0.046192 -0.076067
0.358459 -0.280374 0.088313
-0.135321 0.173093 -0.054871
-0.169150 0.241328 -0.078122
0.062550 -0.089962 0.078340
0.185704 -0.273372 0.177033
0.164751 -0.204736 0.199379
-0.088081 0.103325 -0.018466
-0.097520 -0.067730 -0.172376
-0.060540 -0.121822 -0.124556
-0.297271 0.198290 -0.049423
0.359228 -0.320500 0.180875
0.171358 0.017598 0.000890
-0.255606 0.096238 -0.076894
0.266184 -0.208459 0.092624
0.241148 -0.315367 0.118116
0.081446 -0.177352 -0.203011
-0.183873 0.236970 -0.053661
0.099057 -0.106492 0.115840
0.032959 -0.138760 0.145627
-0.209952 0.020832 -0.080872
0.141629 -0.252003 -0.064362
0.159079 -0.267742 0.179847
-0.131269 0.058663 -0.086073
0.118276 -0.327696 0.121571
-0.126355 0.053778 -0.089028
-0.059616 0.059105 0.009052
0.315701 -0.182729 0.147676
-0.036828 -0.176194 -0.089912
0.187666 0.031001 -0.077652
0.157504 -0.304112 0.099451
-0.052339 -0.113780 0.076154
0.193866 -0.141767 0.158766
0.185948 -0.226505 0.319599
-0.040240 0.097495 -0.049236
0.129313 -0.126247 0.062705
0.063191 -0.139710 0.164229
0.087829 -0.207614 -0.122615
0.066491 -0.326084 0.001321
0.298373 -0.212492 0.204920
0.127513 -0.207077 0.044670
0.036105 -0.083458 -0.099708
0.101138 -0.184043 0.258748
0.153848 -0.158044 0.091278
-0.104186 0.117536 -0.112789
-0.182585 0.225800 -0.095713
0.214211 -0.273761 0.080373
-0.300579 0.189763 -0.064745
0.038114 -0.305810 0.059449
-0.127260 -0.086135 0.007619
0.122550 -0.195125 0.233582
-0.084610 -0.049363 -0.130965
0.186847 -0.294566 0.164281
-0.028924 -0.090223 0.086644
0.024781 -0.203302 -0.026622
0.112388 -0.225692 -0.004378
0.154007 -0.302571 0.094901
-0.025062 0.035071 -0.037587
0.322269 -0.288022 0.078599
0.356400 -0.305254 0.226221
0.073271 -0.338733 0.025913
0.146321 -0.191541 -0.159309
0.047226 -0.071002 -0.007219
0.233496 -0.204379 0.124343
-0.044454 -0.231196 0.027153
0.230773 -0.318185 0.192850
0.001856 -0.215545 -0.019059
0.062985 -0.282867 0.143187
-0.070245 -0.184376 -0.023317
0.206847 0.016208 -0.031968
-0.126720 0.091479 -0.024442
-0.044173 -0.071310 -0.171671
0.072444 -0.137974 -0.198106
-0.014037 -0.080873 -0.150733
-0.013118 -0.068270 -0.110520
0.187020 -0.233180 0.291833
0.352230 -0.305554 0.141262
0.204177 0.046849 -0.047626
0.082912 -0.207570 0.222782
0.119933 -0.194846 0.201364
-0.080416 -0.176383 -0.038863
0.281262 -0.211370 0.091623
0.069656 -0.295491 0.001985
-0.017848 -0.235080 0.005796
0.197175 -0.105328 0.113838
0.261812 -0.230334 0.216329
-0.022028 -0.250620 0.033651
-0.075236 0.157843 -0.062970
-0.227271 0.266190 -0.064405
-0.162040 0.158772 -0.101050
-0.243330 0.275875 -0.083501
0.163723 -0.122874 0.098240
-0.179285 0.202802 -0.107859
0.156473 -0.192168 0.092299
0.178020 0.061228 -0.101514
-0.175410 0.022335 -0.067525
-0.277671 0.273950 -0.096338
0.085714 -0.104005 0.086437
0.176444 -0.016390 -0.031585
0.357402 -0.288118 0.227142
0.025101 -0.293442 0.079510
0.204051 -0.007164 -0.025585
0.147521 -0.195816 0.339010
-0.013735 -0.176438 0.110791
0.136116 -0.334524 0.032101
0.234548 -0.233615 0.206722
-0.162316 0.079731 -0.072046
0.195467 -0.223543 0.037303
-0.034048 -0.198570 0.081124
-0.054411 -0.033936 -0.108338
-0.083095 0.088199 -0.008328
-0.038154 -0.045376 0.067203
0.369425 -0.290937 0.133267
-0.128095 0.116285 -0.040384
0.257609 -0.294705 0.224867
-0.098261 -0.189096 0.016535
0.163448 -0.194835 -0.015288
-0.233351 0.265067 -0.089408
0.179826 0.050870 -0.055107
-0.019289 -0.124857 -0.163985
-0.195128 0.186143 -0.106297
0.141177 -0.194076 0.265804
0.118770 -0.118142 0.171229
0.009234 -0.140903 -0.182217
-0.035723 -0.067433 -0.163058
0.068158 -0.336780 0.050014
0.105661 -0.352604 0.035793
-0.201379 0.011151 -0.083120
0.110729 -0.328798 -0.033180
-0.241240 0.210316 -0.054852
0.130740 -0.238298 0.034557
0.246871 -0.223840 0.188775
-0.250870 0.211682 -0.080324
-0.204502 0.249873 -0.056345
0.104259 -0.259719 -0.041552
-0.093241 0.098276 -0.015897
-0.075829 -0.178028 -0.046076
-0.272851 0.232494 -0.081226
-0.151397 0.003632 -0.103646
0.024672 -0.115341 0.125636
0.081813 -0.245903 -0.006608
-0.089485 -0.202313 0.035470
-0.009976 -0.082575 -0.139963
-0.097956 -0.078328 -0.146968
-0.004761 -0.128898 0.119911
0.180912 -0.188571 0.271292
-0.108879 -0.149875 -0.035003
-0.354239 0.317561 -0.073794
-0.149874 0.217477 -0.095335
0.364750 -0.263357 0.155540
0.267364 -0.347374 0.149271
0.098417 -0.271363 0.020952
0.203157 0.078107 -0.126317
0.386364 -0.275556 0.203049
0.228502 -0.256041 0.066016
0.261889 -0.234674 0.219763
0.093240 -0.249783 -0.005524
0.135500 -0.084709 0.111061
-0.008112 -0.094958 0.098995
0.052802 -0.083765 -0.021490
-0.140515 0.141475 -0.109426
-0.028333 -0.042290 -0.102690
-0.131616 -0.096165 -0.050718
0.314740 -0.343371 0.123430
0.044209 -0.258167 0.213096
0.109681 -0.248258 0.252890
0.043238 -0.250549 0.228896
-0.018807 -0.056836 0.070304
-0.249471 0.251164 -0.096569
-0.038238 -0.109309 0.088404
-0.088686 -0.059189 -0.223465
0.167470 -0.242980 0.262891
0.045778 -0.237369 0.171868
-0.198825 0.230373 -0.045916
-0.126271 0.140919 -0.049158
0.167738 -0.284215 0.171037
-0.304666 0.271104 -0.095147
-0.073486 -0.032669 -0.214543
0.062048 -0.099830 -0.137843
0.135471 -0.273530 -0.054480
-0.193032 0.043961 -0.061668
0.101031 -0.168986 -0.100653
0.045484 -0.209205 -0.008568
-0.184183 0.029601 -0.095944
0.134611 -0.258430 -0.033272
-0.258307 0.135126 -0.048507
0.258551 -0.208084 0.104182
0.138306 -0.264831 -0.065446
0.178919 -0.132279 0.106495
0.104055 -0.174415 -0.104484
0.126537 -0.196432 0.234532
0.358039 -0.263615 0.236594
0.289228 -0.176493 0.142052
-0.242633 0.075238 -0.081196
-0.093505 -0.061055 -0.187211
0.041620 -0.073812 0.025565
0.339621 -0.217900 0.117864
-0.076817 -0.072264 -0.217019
0.000618 -0.211760 -0.032143
0.284835 -0.195760 0.135842
0.198004 -0.060733 0.047571
0.284680 -0.200131 0.188610
-0.063590 -0.173584 -0.074443
0.188706 -0.037236 0.069504
0.032360 -0.264830 0.159908
0.202726 -0.219879 0.031653
0.202096 -0.280411 0.177899
-0.022987 0.031870 -0.030883
-0.137148 -0.026751 0.035228
0.012351 -0.040090 0.016928
0.175921 -0.265539 0.089086
-0.236395 0.063024 -0.081657
0.055687 -0.085816 0.068496
0.263113 -0.331428 0.092464
0.184430 -0.305198 0.149287
0.085046 -0.254349 0.202251
-0.078542 -0.073705 0.065697
-0.088785 -0.172130 -0.036992
0.176468 0.087115 -0.143112
-0.180647 0.039201 -0.093861
0.137285 -0.183804 -0.136609
0.094333 -0.149527 -0.202158
-0.098501 -0.133512 0.016626
-0.210498 0.023881 -0.083024
0.326711 -0.234233 0.098330
-0.135101 0.211620 -0.097270
0.089476 -0.259377 -0.085624
0.207305 0.072966 -0.084248
-0.138671 0.191358 -0.110879
0.183027 -0.223702 0.168010
-0.213731 0.041366 -0.062211
0.073354 -0.243197 0.278736
-0.022208 0.018273 0.003034
0.083757 -0.147809 -0.089679
0.067157 -0.133133 0.160669
0.369399 -0.281593 0.133036
-0.235071 0.063277 -0.057080
0.028125 -0.163904 -0.177171
0.160814 -0.200940 0.202585
0.197980 0.044174 -0.111835
-0.096069 -0.165102 -0.044367
0.352883 -0.258408 0.189566
-0.056177 -0.031691 -0.107917
0.011136 -0.053218 -0.047487
0.194421 -0.116427 0.148730
0.198755 -0.067561 0.059041
0.343491 -0.308130 0.146478
-0.279514 0.288689 -0.093544
0.089261 -0.128221 0.164730
-0.149059 0.070828 -0.070013
0.294088 -0.237022 0.089453
0.195795 -0.112568 0.139196
0.187343 -0.087033 0.058938
-0.270789 0.122203 -0.059917
0.128944 -0.336029 0.109371
0.027389 -0.117582 -0.187562
0.071540 -0.314117 -0.091416
-0.152380 0.173953 -0.051196
0.035238 -0.263117 0.173506
0.024022 -0.079290 -0.118370
0.153968 -0.237456 -0.021721
0.081060 -0.101767 0.112607
0.188117 -0.307237 0.120352
0.052842 -0.104947 -0.055465
-0.288149 0.269957 -0.055366
-0.057464 0.055644 -0.081871
0.198225 0.010175 -0.056197
0.104924 -0.278890 0.020378
0.369482 -0.311575 0.186271
0.020620 -0.070488 -0.072779
0.058649 -0.228945 0.186523
0.133239 -0.131043 0.085347
0.108369 -0.249944 0.257832
-0.094731 0.134719 -0.039650
0.084367 -0.279313 -0.018056
0.076376 -0.273996 0.021969
0.128059 -0.196863 -0.136900
0.195198 -0.022788 0.048952
0.095264 -0.268915 -0.093279
-0.103006 -0.111693 -0.091880
0.171685 -0.236078 0.312700
0.162540 -0.255987 0.184739
-0.096278 -0.064838 -0.211198
0.044114 -0.075963 -0.054126
0.114350 -0.199072 -0.127272
-0.055573 -0.059390 -0.133523
0.109708 -0.351631 0.086983
0.364198 -0.259649 0.116614
-0.105232 -0.156673 -0.052826
0.027709 -0.278950 0.114093
0.012493 -0.193460 0.137757
-0.260974 0.137450 -0.048936
0.381815 -0.296685 0.187097
0.339870 -0.280009 0.072028
0.077892 -0.193941 0.000952
0.368672 -0.249252 0.142871
0.256807 -0.339709 0.101111
0.284756 -0.357918 0.128968
-0.090895 -0.138146 0.022516
0.088083 -0.331652 0.112222
-0.066713 -0.068707 -0.206559
-0.018473 -0.234692 0.086643
0.095509 -0.118426 -0.151815
-0.207200 0.221548 -0.041293
-0.064322 -0.049165 0.066746
-0.261148 0.214649 -0.059951
-0.053570 0.070865 -0.082853
0.373856 -0.276400 0.125054
-0.166648 0.186478 -0.044417
0.322922 -0.253026 0.084252
-0.134061 -0.040349 0.036553
0.127221 -0.217391 -0.023542
0.287465 -0.200237 0.178412
-0.267936 0.271916 -0.095038
0.268452 -0.350097 0.149359
0.030038 -0.198842 -0.123521
-0.052335 -0.064397 -0.233152
0.144856 -0.281836 0.170789
-0.144119 0.155643 -0.061811
-0.386679 0.338486 -0.161511
-0.183375 0.098286 -0.073966
0.149179 -0.096699 0.062442
0.053972 -0.190889 -0.090428
-0.343103 0.274899 -0.062380
0.346893 -0.225181 0.101452
-0.087449 -0.181550 -0.027151
-0.238894 0.086003 -0.050519
-0.176692 -0.003586 -0.072364
-0.327103 0.278396 -0.095937
0.086826 -0.207985 0.218544
-0.123707 -0.035226 -0.106515
0.182339 -0.225948 0.265324
0.327756 -0.236863 0.087019
0.079485 -0.190612 0.002277
-0.220674 0.106244 -0.057068
-0.101337 -0.158665 -0.057612
-0.070178 0.142301 -0.099602
0.198648 -0.080791 0.090648
-0.096792 -0.053249 -0.109723
0.200880 -0.188201 0.036459
0.214297 -0.199929 0.043280
0.137182 -0.302532 0.031581
0.222409 -0.309607 0.189072
0.134891 -0.115986 0.117975
0.145566 -0.217010 0.206017
0.351825 -0.223336 0.099312
0.280148 -0.357058 0.149120
-0.157799 0.226905 -0.090188
0.147337 -0.224887 0.000861
-0.082980 -0.102935 -0.108276
0.009301 -0.164374 0.139841
0.251569 -0.210510 0.159911
0.077804 -0.184652 0.259092
0.171420 -0.204713 0.144636
0.146569 -0.234861 -0.007771
0.172940 -0.114407 0.082838
-0.239797 0.071361 -0.088174
0.088524 -0.184317 0.193131
0.274489 -0.355074 0.122875
0.321641 -0.250456 0.209376
0.186155 -0.087657 0.133265
0.127193 -0.135389 -0.146044
0.134230 -0.247931 0.206926
0.135767 -0.224224 0.211315
-0.043597 -0.090180 0.079772
0.197399 0.028674 -0.016028
-0.147420 0.002099 -0.057095
-0.301654 0.266092 -0.058900
0.347149 -0.287090 0.112241
0.057249 -0.162582 -0.030170
-0.111823 -0.172192 0.011928
0.044277 -0.190551 -0.026004
-0.083704 -0.078547 -0.199510
0.187217 -0.191491 -0.003695
0.012604 -0.277152 0.086948
0.065837 -0.215727 0.001726
-0.018259 0.011585 -0.014343
0.038863 -0.261492 0.020627
0.136073 -0.191383 -0.139916
0.135267 -0.143268 0.193632
-0.139553 -0.029813 0.031305
0.362632 -0.310121 0.172353
-0.057971 -0.081898 -0.115784
-0.217383 0.199024 -0.050692
0.036583 -0.293751 0.042842
-0.127887 -0.068502 0.032084
-0.099430 0.086654 -0.009879
-0.235185 0.098576 -0.047752
0.275736 -0.270720 0.078519
0.166439 -0.294935 0.102936
-0.146179 -0.048271 -0.014664
0.187548 -0.156069 0.132748
-0.271810 0.123323 -0.042074
0.358661 -0.267215 0.185112
-0.073276 -0.023216 0.056924
0.056609 -0.230849 0.226085
0.032470 -0.074996 -0.064163
-0.018360 -0.120616 -0.169074
-0.041777 -0.229477 0.044106
0.083748 -0.347004 0.059043
-0.082096 -0.151314 0.032445
0.345238 -0.288775 0.109760
-0.160765 -0.014091 -0.095599
-0.173728 0.086181 -0.088080
-0.068103 -0.116829 0.061409
0.122596 -0.289584 0.160759
-0.062697 0.017729 -0.083591
0.042351 -0.242713 0.200891
-0.041663 -0.081318 -0.117727
0.087426 -0.344298 0.010562
0.159539 -0.194125 0.199641
0.273262 -0.236456 0.223516
-0.004728 -0.017361 0.006125
-0.285946 0.156647 -0.036216
-0.122911 0.031156 -0.101913
-0.026405 -0.181683 0.078049
0.070395 -0.191936 0.266154
0.269899 -0.351970 0.169498
0.020368 -0.144899 0.142170
-0.032323 0.028018 0.013306
0.110739 -0.132442 -0.121541
-0.031102 -0.211718 -0.030267
-0.165652 0.237179 -0.066734
-0.181379 0.060401 -0.062849
-0.120746 0.018307 -0.101836
-0.075805 -0.041100 -0.181549
-0.271254 0.195799 -0.056369
0.111668 -0.203641 0.015154
-0.140264 0.221470 -0.079341
0.200964 -0.033030 0.046359
-0.090106 -0.054617 -0.203036
0.135000 -0.094766 0.082358
0.179810 -0.178052 0.182458
0.114961 -0.294507 -0.088681
0.163451 -0.211117 0.315577
0.107111 -0.328510 -0.047647
0.022416 -0.275211 0.109665
0.162856 -0.232174 0.246519
0.093961 -0.332755 -0.052394
0.279406 -0.353585 0.113705
0.173560 -0.196638 0.036084
-0.035666 0.053787 -0.000318
-0.017511 0.006949 -0.014403
0.360883 -0.293167 0.145489
0.231667 -0.215000 0.086808
0.150611 -0.254187 0.185616
0.043028 -0.076989 0.030363
0.138540 -0.197901 -0.184729
-0.114682 0.166806 -0.056406
0.008994 -0.204818 0.128022
0.035443 -0.057602 -0.024459
-0.184128 0.221550 -0.044865
0.163467 -0.003574 0.029343
0.155929 -0.179914 0.302466
0.179447 0.051690 -0.061397
-0.027483 -0.122365 -0.148336
0.006962 -0.032219 0.002065
0.207997 0.023475 -0.058164
0.224767 -0.214489 0.091876
-0.112674 0.193031 -0.068553
0.194575 -0.081363 0.109613
0.078722 -0.206461 -0.117556
0.346592 -0.331758 0.188263
-0.137199 -0.008432 0.031503
0.317345 -0.301527 0.229967
-0.249352 0.090998 -0.045392
0.050707 -0.168683 0.171247
-0.048048 -0.059368 -0.232510
0.128622 -0.191624 -0.194607
-0.180302 0.167935 -0.060851
-0.129907 -0.067201 0.030205
-0.355950 0.290839 -0.062937
-0.102552 0.027853 -0.089809
-0.070789 -0.078941 -0.186660
-0.076120 -0.182169 -0.026384
0.183681 -0.132901 0.180062
0.026661 -0.094744 -0.144132
0.065013 -0.285435 -0.031782
0.044573 -0.199487 0.168096
-0.005575 -0.161502 -0.148438
0.013173 -0.070556 0.075871
-0.086978 -0.059809 -0.105631
-0.043319 -0.111562 0.084737
0.370128 -0.312355 0.182669
0.051493 -0.086874 -0.042478
0.097353 -0.253060 -0.082778
-0.004252 -0.220493 -0.025197
-0.286581 0.267319 -0.054886
0.181314 -0.042726 -0.003451
-0.329960 0.297550 -0.063571
0.314530 -0.328736 0.223529
-0.093638 -0.095284 -0.098074
0.126371 -0.319588 0.130218
0.090012 -0.128955 -0.099298
-0.193181 0.218160 -0.102778
0.112633 -0.325751 -0.037175
0.172426 -0.293378 0.102759
0.147854 -0.124320 0.107447
-0.141126 -0.008225 0.025512
-0.119483 0.205930 -0.083170
0.232830 -0.241902 0.203305
-0.133933 0.108103 -0.096148
0.127923 -0.238840 -0.069074
-0.268777 0.278718 -0.093739
0.048619 -0.238323 0.185103
0.118290 -0.148395 0.030020
0.075880 -0.108113 -0.103016
0.114911 -0.206090 0.299940
0.232737 -0.335789 0.127363
0.130673 -0.122296 0.116120
0.243766 -0.201373 0.118740
0.229061 -0.246588 0.065543
-0.104506 0.008085 0.037241
0.144741 -0.261033 0.060335
0.058414 -0.229936 0.239167
-0.055565 -0.077018 -0.179980
-0.133209 0.052663 -0.016091
-0.194076 0.170160 -0.082236
0.030318 -0.069146 0.053291
-0.252279 0.117813 -0.090619
0.306388 -0.197126 0.131858
0.173569 -0.163690 0.192118
0.066760 -0.218334 0.240169
0.154746 -0.197339 0.090315
0.071688 -0.337318 0.082682
-0.063356 0.144031 -0.063841
-0.121854 0.115370 -0.108941
0.163373 -0.212123 0.338261
0.341225 -0.216492 0.191073
0.194723 -0.145865 0.141831
0.193122 -0.112098 0.102476
0.134924 -0.245691 0.276557
0.349119 -0.225963 0.144576
0.080735 -0.209954 0.220301
-0.079898 -0.104156 -0.110533
0.128547 -0.238058 -0.015679
-0.055623 -0.078690 -0.116756
-0.097768 0.042228 0.013733
-0.084691 -0.048402 -0.182328
0.095061 -0.191522 0.291562
0.045602 -0.142890 -0.062577
-0.317510 0.303212 -0.067416
0.182132 0.098648 -0.145787
0.228727 -0.331251 0.158821
-0.146405 -0.043227 -0.001375
0.123733 -0.248222 0.214053
0.086606 -0.329937 0.113703
0.119268 -0.183011 0.270206
0.229643 -0.216030 0.065693
-0.063596 -0.052887 -0.109146
0.363711 -0.324409 0.197167
0.143831 -0.130178 0.189250
-0.104265 -0.119320 0.022538
0.134953 -0.077742 0.095624
0.122762 -0.181675 0.266522
0.116902 -0.328670 -0.011720
0.335460 -0.289940 0.238327
-0.073244 0.102609 -0.017431
0.170690 -0.149163 0.195601
0.041516 -0.311070 0.069286
-0.272676 0.191876 -0.079616
-0.041517 -0.147317 0.069796
0.074645 -0.109106 -0.174137
-0.144254 0.108174 -0.056080
0.096361 -0.209147 -0.171991
-0.117186 -0.141116 -0.052322
-0.036028 0.019636 0.023039
0.046169 -0.233063 0.171461
0.365611 -0.280386 0.148292
0.037399 -0.068283 -0.041776
-0.025256 -0.171195 -0.122297
0.148815 -0.159841 0.082222
-0.123872 0.137126 -0.116638
0.120184 -0.299745 -0.024113
0.358053 -0.270575 0.170545
-0.099068 0.188838 -0.107113
-0.078988 0.167795 -0.070377
-0.013388 -0.081150 -0.155077
0.031200 -0.293224 0.048288
0.187580 -0.098118 0.072420
0.269585 -0.201597 0.145832
-0.037204 0.042231 -0.060287
0.078653 -0.252365 0.228709
-0.170403 0.198829 -0.041893
-0.132669 0.215064 -0.082994
0.296853 -0.300617 0.237243
-0.094980 0.026629 -0.088825
0.078214 -0.118646 0.024003
0.346893 -0.224854 0.126907
0.042098 -0.257435 0.017730
-0.117026 -0.018400 0.047950
0.173818 -0.084753 0.140384
-0.215772 0.080784 -0.056350
0.150978 -0.192444 0.281192
-0.083172 -0.052725 -0.125580
0.231635 -0.257877 0.220041
0.153202 -0.125478 0.099134
-0.042661 0.035693 -0.065971
0.122510 -0.243307 0.012290
0.145723 -0.027386 0.014936
0.156090 -0.216614 0.100548
0.286993 -0.178578 0.137454
0.015229 -0.283127 0.068367
0.078494 -0.316108 0.124855
0.197090 -0.091553 0.110343
-0.133180 0.060341 -0.085229
0.029309 -0.186212 -0.037127
0.018953 -0.054179 0.036197
0.153162 -0.245669 0.079538
0.172889 -0.260695 0.181956
-0.261470 0.107643 -0.083199
0.198640 -0.041555 0.057194
0.171032 -0.184121 0.134963
0.135569 -0.068829 0.072793
0.232649 -0.319197 0.125594
-0.041831 0.049164 -0.067183
-0.042667 -0.110973 -0.145516
0.014856 -0.045243 0.022361
0.097510 -0.132757 -0.190044
0.095160 -0.182399 -0.204673
0.149545 -0.137587 0.095332
-0.359342 0.336067 -0.086614
-0.007011 -0.099869 -0.176133
0.160612 -0.041873 -0.003317
0.117793 -0.298474 -0.043142
0.239099 -0.308966 0.114431
-0.118934 -0.138959 -0.045815
0.049030 -0.247038 0.011593
-0.048154 -0.047209 -0.198116
0.149572 -0.018241 0.002495
0.172542 -0.290318 0.166862
-0.043197 -0.019384 -0.074456
0.344019 -0.326776 0.152980
0.194636 -0.301146 0.158524
0.053126 -0.244495 0.258275
-0.107144 -0.105858 0.020980
0.289676 -0.237605 0.092130
-0.085015 0.063175 0.005321
-0.001447 -0.269548 0.071764
0.171039 -0.219843 -0.017935
-0.077950 -0.085053 -0.170512
0.175572 -0.040590 -0.008101
0.104326 -0.192778 0.019204
-0.058663 -0.098878 -0.129731
-0.053038 -0.216891 -0.003264
0.055001 -0.230766 0.004286
-0.283689 0.217877 -0.054329
0.254925 -0.198687 0.184686
-0.096848 -0.059089 -0.156506
0.185551 -0.051897 0.013534
0.175587 -0.066769 0.027711
-0.184699 0.060092 -0.091355
-0.206609 0.102808 -0.088736
0.133133 -0.224133 -0.007334
-0.112920 -0.065108 -0.075721
0.208318 -0.268890 0.191029
-0.369931 0.344260 -0.146221
0.153510 -0.094096 0.057528
0.187885 -0.102655 0.148224
-0.116798 0.092081 -0.018263
0.201068 -0.225272 0.091626
0.109959 -0.250946 0.201486
-0.270315 0.138497 -0.091499
-0.020490 -0.183879 0.090150
0.105303 -0.183757 0.023754
0.189027 -0.093124 0.135181
0.142279 -0.337060 0.048323
0.006657 -0.133945 -0.183632
-0.117499 -0.006126 0.042781
0.137090 -0.245494 0.278256
-0.019446 -0.170808 0.102998
0.133615 -0.105436 0.112719
-0.102167 0.104033 -0.021438
0.139421 -0.142316 0.053370
0.021227 -0.239005 0.136441
0.178351 0.012119 -0.054427
-0.077904 -0.087190 0.065178
-0.022524 -0.024561 0.052347
0.075757 -0.289564 0.145514
0.141717 -0.177600 -0.138106
-0.025563 -0.245364 0.027094
0.004528 -0.148308 0.133152
0.119123 -0.183030 0.033899
0.243183 -0.337529 0.123010
0.365056 -0.319666 0.186440
-0.029925 -0.196231 0.078661
0.151015 -0.232707 -0.005610
0.103362 -0.192693 0.332586
-0.106614 -0.027533 0.053602
0.184855 -0.194614 0.266343
-0.133033 -0.026640 -0.061306
0.172620 0.013934 -0.049906
0.145399 -0.223811 0.328844
-0.090081 -0.082933 -0.160462
0.193403 -0.134705 0.160739
-0.111322 0.064945 -0.091636
0.054769 -0.110369 -0.031990
-0.082957 0.151651 -0.052836
-0.287237 0.295240 -0.092764
0.197058 -0.242255 0.091368
-0.094964 0.136101 -0.116218
0.027188 -0.056395 -0.038728
-0.259489 0.106573 -0.037668
-0.100761 -0.036418 0.056880
0.220497 -0.212185 0.123710
0.124624 -0.274143 -0.084079
-0.128574 -0.097518 -0.059659
0.103271 -0.344644 0.098556
0.112050 -0.115538 0.101816
0.141268 -0.291530 0.050031
-0.226939 0.072255 -0.056542
0.187448 -0.201988 0.262840
0.140922 -0.194008 0.291606
0.180510 -0.045322 0.087017
0.018755 -0.275138 0.088249
-0.210308 0.072625 -0.080306
0.112169 -0.251329 0.195813
0.171602 0.049824 -0.154047
0.089564 -0.131366 -0.189768
0.111997 -0.138011 0.184284
0.128362 -0.193519 0.331121
-0.076689 -0.208390 -0.002104
0.180413 0.076692 -0.093755
-0.077527 -0.043196 -0.176860
0.078819 -0.335817 -0.017534
0.025163 -0.274537 0.034459
0.106150 -0.329873 -0.044097
-0.058272 -0.164462 -0.098593
0.161256 -0.117374 0.180260
0.018137 -0.231722 0.136246
0.180590 -0.262044 0.180358
0.124097 -0.139026 -0.179192
-0.267459 0.190095 -0.075965
0.104741 -0.214615 -0.161011
0.361985 -0.289139 0.221873
-0.056356 -0.044258 -0.106938
-0.133143 -0.067048 -0.046895
0.053585 -0.223792 0.001728
0.066342 -0.252749 0.256985
0.138040 -0.178183 0.057643
0.093884 -0.211861 -0.165529
-0.169497 0.209737 -0.044239
-0.194690 0.253848 -0.071053
0.207099 -0.201060 0.006148
0.022631 -0.238569 0.001838
0.192770 -0.108896 0.145650
-0.214236 0.184934 -0.065092
0.132969 -0.273013 0.174517
0.069549 -0.324414 -0.056337
0.099457 -0.181653 0.020143
0.035603 -0.089092 -0.071322
-0.130609 0.077459 -0.085045
0.355978 -0.281469 0.114636
-0.396796 0.348496 -0.168190
-0.031722 0.035730 0.007228
0.155675 -0.204794 0.322376
0.168331 -0.194206 0.340595
-0.206115 0.258695 -0.081732
0.132286 -0.245838 0.245934
-0.175863 0.090162 -0.084540
0.323112 -0.264559 0.216178
0.038567 -0.065065 -0.056508
0.174901 -0.024093 -0.024052
0.300570 -0.326336 0.077438
-0.352220 0.274480 -0.079727
-0.275087 0.195112 -0.055319
-0.061378 0.030209 0.025375
0.047576 -0.198877 -0.101347
0.281108 -0.285956 0.085164
0.181133 -0.199556 0.184250
0.064768 -0.326550 0.021070
-0.090560 -0.194986 0.001053
0.015445 -0.193406 -0.110487
-0.013713 -0.148537 0.116307
-0.044860 -0.201801 0.075157
0.090995 -0.201320 -0.113743
0.075056 -0.336835 0.004534
0.061302 -0.146843 -0.032348
-0.089485 -0.203366 0.041632
-0.264636 0.167963 -0.094473
0.131166 -0.280746 0.035872
-0.219049 0.103011 -0.091441
0.249475 -0.319405 0.095552
-0.127651 -0.046659 -0.087566
0.328558 -0.234588 0.096219
-0.041351 -0.016169 -0.071470
0.174266 -0.196493 0.033302
0.119474 -0.224717 0.006865
0.233827 -0.212999 0.069160
-0.072066 -0.044284 -0.164578
0.195619 -0.122560 0.148769
0.063399 -0.221721 0.276970
0.097760 -0.347837 0.090768
0.131411 -0.142025 -0.147064
-0.056939 0.133612 -0.069078
0.101662 -0.301063 -0.096755
-0.091706 -0.050776 -0.112588
-0.134838 0.041911 -0.095038
0.370794 -0.277370 0.178445
-0.112500 0.174671 -0.059467
-0.166968 -0.020119 -0.083017
-0.242091 0.205989 -0.082837
0.240935 -0.292568 0.221041
-0.116496 -0.126474 -0.006480
0.188907 -0.016842 0.049490
-0.007112 -0.227106 0.103960
0.095215 -0.104917 0.112413
0.182668 0.072091 -0.131974
0.288633 -0.216382 0.212092
0.081141 -0.274950 -0.044742
0.332076 -0.192503 0.152509
0.132296 -0.230363 -0.061742
0.133072 -0.230921 0.042878
-0.026468 0.053979 -0.039489
0.174636 0.043150 -0.123637
0.150692 -0.312640 0.080876
0.161211 -0.045309 -0.000148
0.030195 -0.195863 -0.099094
0.115069 -0.235750 -0.068475
-0.080929 0.165379 -0.065705
0.348826 -0.257394 0.191069
-0.167729 0.161031 -0.100076
0.063947 -0.322274 0.012963
0.040819 -0.065754 -0.027596
-0.164634 0.035087 -0.097540
0.047072 -0.155831 -0.048284
0.171706 -0.097122 0.060650
-0.085153 -0.182127 0.056033
0.025271 -0.254232 0.174216
0.190873 -0.150898 0.167982
-0.149042 0.014059 -0.096562
-0.045964 -0.057030 -0.186097
0.194868 -0.033776 -0.005683
0.182660 -0.184638 0.160454
0.078704 -0.336494 -0.012646
0.225753 -0.267079 0.208382
-0.185431 0.080690 -0.063001
-0.292888 0.269769 -0.096657
-0.013473 -0.254113 0.024821
-0.042181 -0.188623 -0.048055
0.155471 -0.001722 -0.011835
0.030842 -0.207743 -0.017735
-0.231108 0.060242 -0.089082
0.184512 -0.192885 0.177913
-0.111221 -0.066688 0.050235
-0.110247 -0.170570 -0.004638
-0.088602 -0.142165 -0.099525
-0.209214 0.255260 -0.087957
0.087722 -0.250196 -0.072048
0.148201 -0.107972 0.170903
-0.134520 -0.019451 -0.103270
-0.117570 -0.164213 0.005541
-0.091451 0.155710 -0.115076
-0.294561 0.162777 -0.040664
-0.110902 -0.143888 -0.018699
-0.275143 0.158527 -0.039267
-0.007295 -0.148772 -0.150264
0.150651 -0.310533 0.138920
0.127617 -0.247595 0.215789
0.323185 -0.179900 0.156654
-0.040647 -0.050779 0.069097
0.365548 -0.260911 0.149197
0.056711 -0.252927 0.244445
-0.323397 0.308567 -0.109535
0.172382 -0.305498 0.113207
0.119267 -0.215728 0.208042
-0.051765 -0.149622 0.049264
0.361772 -0.289151 0.118367
0.338093 -0.311297 0.127810
0.178542 -0.156605 0.189341
0.243782 -0.288986 0.086905
0.077144 -0.262195 -0.078213
0.126531 -0.338347 0.019424
-0.181228 0.096912 -0.070239
-0.061463 -0.096981 -0.129134
0.133314 -0.186619 0.049927
-0.051543 0.099126 -0.024974
0.305423 -0.180335 0.158210
-0.144728 -0.042143 -0.028686
-0.169034 0.212343 -0.045682
-0.219276 0.203896 -0.102011
0.164063 -0.236928 0.092212
0.213763 -0.212462 0.056526
0.147588 -0.098722 0.065967
0.019074 -0.283679 0.091017
-0.263980 0.138673 -0.091257
-0.272671 0.226980 -0.074047
-0.377348 0.366254 -0.128577
-0.038222 -0.197616 0.080974
0.307256 -0.285910 0.225360
0.074989 -0.329597 -0.048108
0.340016 -0.320513 0.118575
0.129862 -0.247096 0.253238
-0.260242 0.135955 -0.036527
0.251719 -0.321303 0.218384
0.272589 -0.351888 0.151986
0.094483 -0.159916 0.029029
0.043472 -0.105403 -0.171976
0.110906 -0.249792 0.268843
-0.389071 0.357616 -0.174769
0.089276 -0.272167 -0.043337
0.025716 -0.161107 -0.178627
0.154750 -0.230795 0.217919
-0.289693 0.181810 -0.042374
-0.142475 -0.027803 -0.030594
0.163261 -0.205031 0.036178
0.176266 -0.221096 0.246998
-0.286030 0.265342 -0.096570
-0.008559 -0.046187 -0.093787
-0.086365 -0.080454 -0.122480
-0.123572 -0.138747 0.005417
0.067527 -0.271342 -0.076223
-0.066000 -0.091843 -0.154168
0.063026 -0.320856 0.021678
0.322216 -0.183643 0.133837
0.227861 -0.326838 0.132860
-0.137613 0.032354 -0.032735
0.185121 -0.301698 0.110716
-0.058673 -0.208658 0.050432
0.197612 -0.224308 0.047265
-0.024083 -0.014645 0.045470
0.149787 -0.273611 0.080275
0.145245 -0.211233 0.074727
0.014080 -0.217127 -0.014270
0.350673 -0.243711 0.187152
0.029009 -0.276171 0.118512
0.121545 -0.163290 -0.205614
0.064162 -0.202051 -0.106985
-0.138919 0.089638 -0.076340
0.193767 0.043329 -0.030760
0.204246 -0.275306 0.178580
-0.224741 0.259503 -0.089860
0.096668 -0.195598 -0.111016
0.180079 0.080801 -0.127493
0.182981 0.091477 -0.178350
-0.122803 -0.104641 -0.068076
0.048018 -0.152467 -0.050635
0.190168 -0.210020 0.267350
0.064931 -0.091479 0.080183
0.081155 -0.201299 0.237739
0.052271 -0.257613 0.219766
-0.219476 0.032508 -0.077776
0.119634 -0.215984 0.343714
-0.233128 0.070381 -0.094705
0.319783 -0.340362 0.156176
0.254673 -0.191025 0.162694
0.020429 -0.043395 -0.016270
0.064020 -0.269731 0.151676
-0.031568 -0.150391 0.091748
-0.077809 -0.124989 0.041490
0.093222 -0.255517 -0.043420
-0.086542 0.044827 -0.091074
-0.150658 -0.031762 -0.084288
0.240713 -0.331063 0.186707
-0.080090 -0.041318 -0.215761
0.110370 -0.274602 0.169074
0.069982 -0.338344 0.051932
0.164452 -0.202917 0.309923
-0.220394 0.265104 -0.068881
0.025415 -0.054113 -0.037169
0.046987 -0.092358 -0.052120
0.168937 -0.281072 0.095442
-0.091058 -0.056789 -0.189701
0.330523 -0.248714 0.074296
-0.226534 0.082916 -0.084938
0.181432 0.063540 -0.087063
0.042549 -0.189354 -0.028252
0.018726 -0.051706 0.029984
0.068622 -0.161005 0.179558
-0.391779 0.350429 -0.105044
0.262526 -0.204321 0.131617
0.074290 -0.259583 -0.063722
-0.004329 -0.209360 0.110378
0.203123 0.025295 -0.024550
0.247816 -0.315033 0.219011
0.116620 -0.195910 -0.197783
-0.255082 0.279751 -0.068742
0.031350 -0.254244 0.198462
0.073768 -0.207057 0.288072
0.177690 -0.184139 0.277320
-0.069218 -0.033477 -0.197968
0.190296 0.019050 -0.067124
-0.221108 0.115790 -0.093974
0.009059 -0.151814 0.137432
0.146232 -0.031264 0.046079
0.150668 -0.189458 0.237325
0.109043 -0.253515 0.180090
0.008904 -0.189194 -0.123480
0.077278 -0.253080 0.224735
0.267046 -0.229588 0.075379
0.320873 -0.294262 0.229940
-0.021721 -0.040675 -0.087322
-0.032024 -0.160194 0.080811
-0.251397 0.119842 -0.036082
0.137372 -0.240020 0.047975
0.352051 -0.256086 0.231653
0.073227 -0.111790 0.139566
0.084193 -0.205874 0.000917
0.123448 -0.212954 0.345495
-0.054741 -0.184669 -0.053430
0.103565 -0.118712 0.162605
0.294476 -0.346916 0.171729
0.023520 -0.098103 -0.137143
0.109092 -0.148230 -0.107608
-0.245194 0.103792 -0.086902
-0.032729 -0.155207 0.086045
-0.296143 0.216412 -0.067377
0.291825 -0.287370 0.076389
0.167972 -0.063648 0.020156
0.184793 -0.014149 0.049330
-0.012272 -0.023724 0.043057
0.136626 -0.182860 0.251111
0.190924 0.015411 0.008625
0.138144 -0.229010 -0.058101
0.357703 -0.224977 0.107579
-0.039865 -0.140932 0.081944
-0.057936 -0.031039 -0.205199
-0.093547 -0.166809 0.041191
0.125260 -0.285064 -0.080839
0.068423 -0.116639 0.144840
-0.283498 0.182606 -0.049438
0.067574 -0.220382 0.215303
-0.121511 -0.132718 -0.039810
0.195085 -0.112507 0.111223
-0.089818 -0.034383 -0.105868
0.192815 -0.150146 0.158788
0.198383 -0.210055 -0.002396
0.173694 -0.115989 0.084999
0.302547 -0.281446 0.069476
0.129940 -0.202296 0.290980
0.143226 -0.141030 0.085357
0.053425 -0.183756 0.176074
0.033917 -0.283749 0.117763
-0.045740 -0.187177 -0.051686
-0.346048 0.300098 -0.110936
0.023286 -0.050609 0.015004
0.202842 0.008914 -0.006216
-0.246103 0.125752 -0.046860
-0.100941 0.126824 -0.115417
0.153116 -0.226610 0.225006
0.163599 -0.048154 0.001852
-0.033587 0.059704 -0.008499
0.331275 -0.178571 0.153182
-0.258188 0.135103 -0.090670
0.153461 -0.202378 0.268400
0.162378 -0.139615 0.099314
0.087673 -0.158962 0.023837
0.054395 -0.140414 -0.073942
-0.219683 0.103307 -0.049634
0.137862 -0.207215 0.209813
0.076724 -0.331179 -0.043557
0.137594 -0.217838 0.057891
-0.237642 0.266722 -0.089860
0.289439 -0.311614 0.071222
-0.177911 0.087375 -0.065100
0.033381 -0.069142 0.042872
0.055361 -0.257693 0.210365
-0.164677 0.206138 -0.102024
0.154955 -0.061070 0.018333
0.069578 -0.224150 0.196059
0.078380 -0.128956 -0.188547
0.174864 -0.079208 0.133041
0.082094 -0.195630 0.246585
0.180045 -0.210502 0.050666
0.188949 -0.223046 0.018755
0.157859 -0.315291 0.110090
0.101423 -0.277739 0.007196
0.121057 -0.125273 0.179624
0.198135 -0.221957 0.022576
0.143982 -0.173435 0.070376
-0.226729 0.089819 -0.051650
0.133439 -0.294556 0.031394
-0.290861 0.262493 -0.094817
-0.024647 0.025231 0.002537
0.145738 -0.276689 0.068177
-0.380645 0.371696 -0.138800
-0.014273 -0.259138 0.046563
0.181070 -0.187041 0.267090
-0.165553 0.180415 -0.109396
0.082710 -0.279858 0.019758
0.188633 -0.225518 0.274791
0.236108 -0.225945 0.201369
-0.010313 -0.082769 -0.152324
0.123725 -0.135185 0.036491
0.111517 -0.139017 -0.115836
-0.010165 -0.116549 -0.177311
0.011024 -0.045776 -0.063792
0.023149 -0.255192 0.018167
0.131125 -0.148381 -0.136830
-0.216699 0.044558 -0.063090
0.140710 -0.200873 -0.173002
-0.052772 -0.207092 0.060039
0.141289 -0.325886 0.036239
0.068444 -0.286573 -0.022485
0.306250 -0.346203 0.198058
0.152702 -0.317555 0.122177
-0.074496 -0.013580 -0.097652
-0.383049 0.332673 -0.156245
-0.054077 0.017131 -0.078352
0.018553 -0.197576 -0.036731
-0.047943 0.115248 -0.068347
0.148237 -0.169344 -0.148288
0.255453 -0.333096 0.204553
0.020683 -0.071386 -0.088397
0.085603 -0.162453 0.185520
0.023596 -0.178861 0.151828
0.137192 -0.168263 0.199670
0.047742 -0.243075 0.231623
0.144050 -0.307327 0.044653
0.056023 -0.248953 0.254255
0.114867 -0.242415 -0.000848
-0.014686 -0.099115 -0.174804
-0.203009 0.070628 -0.058081
0.289901 -0.266854 0.223124
0.064345 -0.147684 -0.012265
0.140117 -0.218396 0.335334
-0.025227 0.049978 -0.020013
-0.001598 -0.266272 0.044254
0.302767 -0.172215 0.140333
0.191688 -0.110734 0.096138
0.350886 -0.253033 0.084348
0.343111 -0.318154 0.157780
-0.318191 0.265635 -0.068957
0.062572 -0.177605 0.182103
0.011335 -0.257823 0.113194
0.122106 -0.230572 0.324449
-0.000335 -0.186438 -0.077898
-0.129791 0.209837 -0.070267
0.043344 -0.100169 -0.166885
-0.392617 0.373459 -0.161447
-0.095658 -0.076381 -0.121972
0.196321 -0.134356 0.147285
0.042155 -0.190874 0.166594
-0.120738 0.190306 -0.109389
0.142813 -0.081617 0.049387
-0.103790 -0.041387 -0.111752
0.115060 -0.230270 -0.028689
-0.154380 0.023910 -0.095091
0.251874 -0.294834 0.222625
-0.079375 0.172218 -0.075546
0.031196 -0.095087 -0.146696
-0.077384 0.089128 -0.008521
0.248497 -0.239119 0.212649
0.342250 -0.300523 0.080843
0.146070 -0.226949 -0.001189
-0.107501 -0.173284 -0.006950
0.151621 -0.302407 0.151237
0.297715 -0.276510 0.226457
0.039136 -0.097327 -0.162772
0.317211 -0.288980 0.225961
0.047120 -0.182725 -0.025994
0.002206 -0.026907 0.013770
0.173172 -0.192450 0.294049
-0.134209 -0.001525 0.030457
0.127724 -0.351248 0.055450
0.195498 -0.293492 0.102396
0.127610 -0.216409 -0.029321
-0.028174 -0.078518 -0.119437
0.097773 -0.320246 0.126746
0.181576 0.023933 -0.064507
0.186010 0.076447 -0.142518
0.318533 -0.269726 0.223561
0.063575 -0.304987 -0.001960
-0.021800 -0.204667 -0.035277
0.092192 -0.276313 -0.039850
0.024890 -0.068197 -0.067131
-0.105348 -0.058257 0.054861
0.234955 -0.255862 0.064749
-0.325731 0.317317 -0.083250
0.246447 -0.239451 0.214957
-0.108124 -0.171160 -0.014895
-0.085793 -0.121388 0.036559
-0.040532 -0.042778 -0.224012
-0.359926 0.322932 -0.077749
0.104918 -0.164461 -0.102736
0.240833 -0.333131 0.181586
-0.064746 -0.068734 -0.203838
0.001243 -0.224021 -0.010403
0.132980 -0.179724 0.049789
0.035761 -0.247122 0.169033
-0.093635 -0.061155 -0.189858
0.293816 -0.309764 0.236684
0.170354 -0.219990 0.027377
0.303165 -0.205511 0.116802
0.062478 -0.281763 -0.044407
0.035472 -0.192467 -0.089414
0.317233 -0.215417 0.107931
0.059145 -0.097915 -0.136412
0.184486 -0.247588 0.095173
0.102501 -0.114117 0.078605
0.066159 -0.323327 -0.025379
0.336724 -0.203131 0.152669
-0.045476 -0.052224 -0.228761
0.170941 -0.052141 0.004644
-0.247565 0.269129 -0.091631
0.140237 -0.255702 -0.035995
0.142052 -0.157116 -0.151634
-0.266265 0.229304 -0.087812
-0.135204 0.050437 -0.021149
